# .PCD v0.7 - Point Cloud Data file format
VERSION 0.7
FIELDS x y z
SIZE 4 4 4
TYPE F F F
COUNT 1 1 1
WIDTH 1481
HEIGHT 1
VIEWPOINT 0 0 0 1 0 0 0
POINTS 1481
DATA ascii
-1.8540262 -0.29499996 0.93088609
1.8168974 -0.29499996 0.92996883
-1.8540102 -0.27499998 0.93088597
1.8169236 -0.27499998 0.92996877
-1.8539952 -0.25499997 0.93088609
1.8169504 -0.25499997 0.92996866
-1.8539792 -0.235 0.93088597
1.8169814 -0.235 0.92996877
-1.8539643 -0.21500002 0.93088603
1.8170103 -0.21500002 0.92996889
-1.8539538 -0.19499998 0.93088609
1.8170148 -0.19499998 0.92996883
-1.8539594 -0.17499997 0.93088609
1.8170415 -0.17499997 0.92996883
-1.8539485 -0.15499997 0.93088603
1.8167009 -0.15499997 0.92996877
-1.8537961 -0.13499999 0.93088597
1.5772341 -0.12999998 0.93983585
1.8109454 -0.13545454 0.92907178
-1.8537153 -0.115 0.93088609
1.1066341 -0.11999999 0.93983585
1.1334761 -0.10999999 0.92799538
1.212604 -0.11999999 0.93588901
1.4281151 -0.10999999 0.92404854
1.5008521 -0.11999999 0.93194222
1.6885221 -0.10999999 0.92010176
1.7780061 -0.11999999 0.92799538
1.8057581 -0.11999999 0.92207515
-1.849071 -0.095454529 0.9300766
-1.8394661 -0.089999989 0.9397915
-1.8409841 -0.079999991 0.92198068
-1.8388242 -0.079999991 0.92554277
-1.7100761 -7.9749994 0.95047808
0.8444612 -7.9699993 0.95167637
0.99651515 -7.9699993 0.94772947
1.2937511 -7.9699993 0.94378263
-1.7167723 -7.9549994 0.95047808
1.1952441 -7.9599996 0.95956993
1.5146621 -7.9599996 0.95562309
1.6564413 -7.9537497 0.95019627
-1.7170441 -7.9349999 0.95047796
1.6576096 -7.9357138 0.95449543
1.661352 -7.9333329 0.94509822
-1.7170264 -7.9149995 0.95047796
1.6586142 -7.9166656 0.95825434
1.6622778 -7.9142847 0.94885719
-1.717006 -7.894999 0.95047796
1.6626505 -7.894999 0.95167637
-1.7169857 -7.875 0.95047796
1.6634824 -7.875 0.95167625
-1.7169397 -7.8549995 0.95047796
1.6589338 -7.8499999 0.95562315
1.6621703 -7.8571424 0.94998485
-1.716869 -7.8349991 0.95047808
1.4831951 -7.8299994 0.95956993
1.6552286 -7.8355551 0.95079923
-1.7138649 -7.8149986 0.95047796
1.0534503 -7.8128562 0.95336777
1.0779961 -7.8199992 0.95167631
1.3041511 -7.8199992 0.94772947
1.5548601 -7.8199992 0.94378263
-1.7087427 -7.7999992 0.95047796
-1.1069455 -7.7899995 0.95047796
1.0534458 -7.7949996 0.95167625
-1.1069375 -7.7749991 0.95047796
1.0534655 -7.7750001 0.95167625
-1.1069272 -7.7549996 0.95047808
1.0534848 -7.7549996 0.95167625
-1.1069143 -7.7349992 0.95047796
1.0535043 -7.7349997 0.95167625
-1.1068971 -7.7149992 0.95047808
1.0535241 -7.7149992 0.95167625
-1.1068776 -7.6949987 0.95047796
1.0535434 -7.6949997 0.95167625
-1.1068581 -7.6749992 0.95047796
1.0535583 -7.6799994 0.95167625
1.7965835 -7.6699991 0.9536497
-1.1068618 -7.6571422 0.94895136
1.8080231 -7.6549997 0.95167625
1.8094852 -7.6349993 0.95167625
-1.860795 -7.6099992 0.95404023
1.809499 -7.6149993 0.95167637
-1.8608091 -7.5949988 0.9504779
1.8095125 -7.5949988 0.95167625
-1.8607785 -7.5749993 0.95047796
1.8095261 -7.5749984 0.95167625
-1.8607485 -7.5549989 0.95047796
1.8095398 -7.5549989 0.95167625
-1.8607185 -7.5349998 0.95047808
1.8095529 -7.5349989 0.95167637
-1.8606884 -7.5149994 0.95047796
1.8095667 -7.5149994 0.95167625
-1.8606583 -7.4949989 0.95047796
1.8095802 -7.4949989 0.95167625
-1.8606313 -7.4749999 0.95047796
1.8096037 -7.4749999 0.95167625
-1.8606104 -7.4549994 0.95047796
1.8096329 -7.4549994 0.95167625
-1.860589 -7.4349999 0.95047808
1.8096619 -7.434999 0.95167625
-1.8605678 -7.4149985 0.95047796
1.8096908 -7.4149985 0.95167637
-1.8605468 -7.394999 0.95047796
1.8097198 -7.394999 0.95167637
-1.8605257 -7.374999 0.95047796
1.8097489 -7.374999 0.95167625
-1.8605045 -7.3549986 0.95047796
1.8097769 -7.3549995 0.95167625
-1.8604835 -7.3349991 0.95047796
1.809796 -7.3349991 0.95167625
-1.8604622 -7.3149996 0.95047808
1.8098129 -7.3149996 0.95167637
-1.8604412 -7.2949996 0.95047808
1.809829 -7.2949996 0.95167637
-1.86042 -7.2749991 0.9504779
1.8098456 -7.2749991 0.95167625
-1.8603989 -7.2549996 0.95047796
1.8098619 -7.2549996 0.95167625
-1.860378 -7.2349992 0.95047808
1.8098783 -7.2349992 0.95167637
-1.8603604 -7.2149992 0.95047796
1.8098946 -7.2149992 0.95167625
-1.8603462 -7.1950006 0.95047796
1.8099111 -7.1949997 0.95167637
-1.8603342 -7.1749992 0.95047808
1.8099276 -7.1749992 0.95167625
-1.8603213 -7.1549997 0.95047796
1.8099439 -7.1549997 0.95167625
-1.8603086 -7.1349993 0.9504779
1.8099604 -7.1349983 0.95167637
-1.860296 -7.1149993 0.95047796
1.8099768 -7.1150002 0.95167625
-1.8602835 -7.0949998 0.95047796
1.8099935 -7.0949988 0.95167625
-1.8602709 -7.0749993 0.95047808
1.8100096 -7.0749993 0.95167637
-1.8602581 -7.0549994 0.95047808
1.8100259 -7.0549989 0.95167625
-1.8602459 -7.0349998 0.95047796
1.8100427 -7.0349998 0.95167637
-1.8602331 -7.0149994 0.95047796
1.8100588 -7.0149994 0.95167625
-1.8602206 -6.9949989 0.95047808
1.8100752 -6.9949989 0.95167637
-1.8602079 -6.9749999 0.95047796
1.8100917 -6.9749999 0.95167625
-1.8601955 -6.9549994 0.95047808
1.8101079 -6.9550004 0.95167625
-1.8601828 -6.9349999 0.95047796
1.8101246 -6.9349999 0.95167625
-1.8601704 -6.9149995 0.95047808
1.8101408 -6.9149985 0.95167625
-1.8601576 -6.894999 0.95047796
1.8101574 -6.894999 0.95167625
-1.8601449 -6.875 0.95047796
1.8101737 -6.875 0.95167625
-1.8601215 -6.8549995 0.95047796
1.81019 -6.8549995 0.95167637
-1.8600922 -6.8349991 0.95047796
1.8102067 -6.8349991 0.95167637
-1.8600701 -6.8155541 0.94968647
-1.8599991 -6.8099995 0.95760232
1.8102207 -6.8149996 0.95167637
-1.8600562 -6.7957139 0.94793361
-1.8599814 -6.7933326 0.95641494
1.8102334 -6.7949996 0.95167625
-1.8600438 -6.7759995 0.94620341
-1.8599653 -6.7739997 0.95475262
1.8102461 -6.7750001 0.95167625
-1.8600221 -6.7549992 0.94513476
-1.8599439 -6.7549992 0.95404023
1.8102586 -6.7549987 0.95167637
-1.8600101 -6.7399993 0.94335371
-1.859939 -6.7344437 0.95126957
1.8102716 -6.7349992 0.95167637
-1.8599164 -6.7149992 0.95047796
1.810284 -6.7149992 0.95167625
-1.8598875 -6.6949987 0.95047808
1.8102973 -6.6950006 0.95167625
-1.8598601 -6.6749992 0.95047796
1.8103149 -6.6749992 0.95167625
-1.859834 -6.6549988 0.95047808
1.8103338 -6.6549988 0.95167625
-1.8598076 -6.6349993 0.95047808
1.8103526 -6.6349993 0.95167637
-1.8597813 -6.6149993 0.95047796
1.8103714 -6.6150002 0.95167625
-1.8597552 -6.5949998 0.95047796
1.8103905 -6.5949998 0.95167637
-1.8597291 -6.5749993 0.95047796
1.8104093 -6.5749993 0.95167625
-1.8596904 -6.5549994 0.95047808
1.8104298 -6.5549989 0.95167625
-1.8596089 -6.5349998 0.95047796
1.8104506 -6.5349989 0.95167625
-1.8595593 -6.5149994 0.95047796
1.8104713 -6.5149994 0.95167625
-1.8595375 -6.4949999 0.95047808
1.8104935 -6.4949989 0.95167625
-1.8595155 -6.4749999 0.95047796
1.8105189 -6.4749999 0.95167625
-1.8594936 -6.4549994 0.95047796
1.8105456 -6.4549994 0.95167625
-1.8594716 -6.434999 0.95047808
1.8105723 -6.4349999 0.95167625
-1.8594496 -6.4149985 0.95047808
1.8105993 -6.4149995 0.95167637
-1.8594277 -6.394999 0.95047796
1.8106263 -6.394999 0.95167625
-1.8594058 -6.374999 0.9504779
1.810653 -6.374999 0.95167625
-1.8593838 -6.3549991 0.95047796
1.8106798 -6.3549995 0.95167625
-1.8593619 -6.3349996 0.95047796
1.8107067 -6.3349991 0.95167637
-1.85934 -6.3149996 0.95047796
1.8107336 -6.3149996 0.95167637
-1.8593181 -6.2949996 0.95047796
1.8107603 -6.2949996 0.95167637
-1.8592961 -6.2749996 0.95047796
1.8107876 -6.2749996 0.95167637
-1.8592743 -6.2549992 0.95047796
1.8108141 -6.2549992 0.95167637
-1.8592523 -6.2349992 0.9504779
1.810841 -6.2349992 0.95167625
-1.8592304 -6.2149992 0.95047796
1.8108679 -6.2149992 0.95167625
-1.8592087 -6.1949992 0.95047796
1.8108947 -6.1949997 0.95167637
-1.8591865 -6.1750002 0.95047796
1.8109217 -6.1749992 0.95167625
-1.8591646 -6.1549997 0.95047796
1.8109484 -6.1549993 0.95167637
-1.8591425 -6.1349993 0.95047796
1.8109753 -6.1349993 0.95167625
-1.8591207 -6.1149993 0.95047796
1.8110021 -6.1149993 0.95167625
-1.859099 -6.0949993 0.95047796
1.8110291 -6.0949993 0.95167625
-1.8590858 -6.0749993 0.95047808
1.8110558 -6.0749993 0.95167625
-1.8590835 -6.0549994 0.95047808
1.8110825 -6.0549994 0.95167625
-1.8590825 -6.0349994 0.95047808
1.8111095 -6.0349994 0.95167625
-1.859081 -6.0149994 0.95047796
1.8111365 -6.0149994 0.95167637
-1.8590797 -5.9949994 0.95047796
1.8111633 -5.9949994 0.95167637
-1.8590714 -5.9749994 0.95047796
1.8111902 -5.9749994 0.95167625
-1.8590524 -5.9549994 0.95047796
1.8112175 -5.9549994 0.95167625
-1.8590332 -5.9349995 0.95047808
1.8112667 -5.9349995 0.95167625
-1.8590136 -5.9149995 0.9504779
1.8113171 -5.914999 0.95167637
-1.8589945 -5.8949995 0.95047808
1.8113369 -5.8949995 0.95167625
-1.8589751 -5.874999 0.95047796
1.8113558 -5.8749986 0.95167637
-1.8589556 -5.8549995 0.95047808
1.8113741 -5.8549991 0.95167625
-1.8589361 -5.8349991 0.95047808
1.8113931 -5.8349991 0.95167625
-1.8588417 -5.8149996 0.95047796
1.8114153 -5.8149986 0.95167625
-1.8588276 -5.7949991 0.95047796
1.811438 -5.7949996 0.95167619
-1.8588136 -5.7749996 0.95047796
1.8114609 -5.7749991 0.95167637
-1.8587997 -5.7549992 0.95047796
1.8114834 -5.7549996 0.95167637
-1.8587854 -5.7349992 0.95047796
1.811506 -5.7349992 0.95167625
-1.8587716 -5.7149992 0.95047796
1.8115284 -5.7149992 0.95167625
-1.8587557 -5.6949992 0.95047808
1.811537 -5.6949997 0.95167637
-1.8587334 -5.6749997 0.95047808
1.8115383 -5.6749992 0.95167625
-1.8587145 -5.6549997 0.95047808
1.8115396 -5.6549997 0.95167625
-1.8586996 -5.6349993 0.95047796
1.8115435 -5.6349993 0.95167625
-1.8586845 -5.6149993 0.95047796
1.8115543 -5.6149993 0.95167637
-1.858669 -5.5949993 0.95047796
1.8115673 -5.5949993 0.95167625
-1.858654 -5.5749993 0.95047808
1.8115807 -5.5749993 0.95167625
-1.858639 -5.5549994 0.95047796
1.8115934 -5.5549989 0.95167625
-1.8586239 -5.5349994 0.95047796
1.8116066 -5.5349998 0.95167625
-1.858609 -5.5149994 0.95047796
1.81162 -5.5149994 0.95167625
-1.8585936 -5.4949994 0.95047796
1.8116328 -5.4949994 0.95167625
-1.8585784 -5.4749994 0.95047808
1.8116457 -5.4749999 0.95167625
-1.8585637 -5.4549999 0.95047796
1.8116591 -5.4549994 0.95167625
-1.8585482 -5.4349995 0.95047796
1.8116719 -5.4349995 0.95167625
-1.8585331 -5.414999 0.95047796
1.811685 -5.4149995 0.95167625
-1.858518 -5.3949995 0.95047808
1.8116977 -5.3949995 0.95167625
-1.858503 -5.3749995 0.95047796
1.8117107 -5.3749995 0.95167637
-1.8584881 -5.3549991 0.95047796
1.8117239 -5.3549991 0.95167625
-1.8584731 -5.3349996 0.95047796
1.8117371 -5.3349991 0.95167625
-1.8584578 -5.3149996 0.95047796
1.8117498 -5.3149996 0.95167625
-1.8584427 -5.2949996 0.95047796
1.8117628 -5.2949991 0.95167625
-1.8584276 -5.2749996 0.95047808
1.8117759 -5.2749991 0.95167625
-1.8584121 -5.2549996 0.95047808
1.8117892 -5.2549992 0.95167625
-1.8583971 -5.2349992 0.95047808
1.8118021 -5.2349997 0.95167625
-1.8583819 -5.2149992 0.95047796
1.811815 -5.2149992 0.95167625
-1.8583629 -5.1949992 0.95047808
1.8118283 -5.1949997 0.95167637
-1.8583424 -5.1749997 0.95047808
1.8118412 -5.1749997 0.95167625
-1.8583219 -5.1549997 0.95047808
1.8118544 -5.1549997 0.95167637
-1.8583012 -5.1349993 0.95047796
1.8118674 -5.1349998 0.95167625
-1.8582817 -5.1149993 0.95047796
1.8118804 -5.1149993 0.95167637
-1.8582726 -5.0949993 0.95047796
1.8118932 -5.0949993 0.95167625
-1.8582668 -5.0749993 0.95047796
1.8119166 -5.0749993 0.95167625
-1.8582608 -5.0549994 0.95047796
1.81198 -5.0549994 0.95167625
-1.8582548 -5.0349998 0.95047796
1.8120034 -5.0349994 0.95167625
-1.8582489 -5.0149994 0.95047808
1.8120162 -5.0149994 0.95167625
-1.8582428 -4.9949994 0.95047796
1.8120286 -4.9949994 0.95167625
-1.8582369 -4.9749994 0.95047808
1.8120415 -4.9749994 0.95167637
-1.8581467 -4.9549994 0.95047796
1.8123976 -4.9549994 0.95167625
-1.8580463 -4.9349995 0.95047796
1.8124231 -4.9349995 0.95167625
-1.8580258 -4.9149995 0.95047796
1.8124492 -4.9149995 0.95167625
-1.8580055 -4.8949995 0.95047808
1.812475 -4.8949995 0.95167625
-1.8579853 -4.8749995 0.95047796
1.812501 -4.8749995 0.95167625
-1.8579649 -4.8549995 0.95047796
1.8125255 -4.8549991 0.95167625
-1.8579409 -4.8349991 0.95047796
1.8125359 -4.8349996 0.95167625
-1.8578959 -4.8149996 0.95047796
1.812537 -4.8149996 0.95167637
-1.8578641 -4.7949991 0.95047796
1.8125381 -4.7949991 0.95167625
-1.8578465 -4.7749991 0.95047808
1.8125446 -4.7749996 0.95167625
-1.8578291 -4.7549992 0.95047808
1.8125626 -4.7549992 0.95167625
-1.8578119 -4.7349992 0.95047796
1.8125826 -4.7349997 0.95167625
-1.8577944 -4.7149992 0.95047796
1.8126023 -4.7149992 0.95167625
-1.8577769 -4.6949992 0.95047808
1.8126217 -4.6949992 0.95167625
-1.8577595 -4.6749997 0.95047796
1.8126415 -4.6749992 0.95167625
-1.8577421 -4.6549997 0.95047796
1.8126615 -4.6549997 0.95167637
-1.8577249 -4.6349998 0.95047796
1.8126814 -4.6349998 0.95167637
-1.8577074 -4.6149998 0.95047796
1.8127015 -4.6149998 0.95167625
-1.8576902 -4.5949993 0.95047796
1.8127213 -4.5949993 0.95167637
-1.8576727 -4.5749993 0.95047808
1.8127407 -4.5749993 0.95167637
-1.8576553 -4.5549994 0.95047808
1.8127607 -4.5549994 0.95167625
-1.857638 -4.5349994 0.95047796
1.8127807 -4.5349994 0.95167625
-1.8576206 -4.5149994 0.95047796
1.8128004 -4.5149994 0.95167637
-1.8576031 -4.4949994 0.95047796
1.8128204 -4.4949994 0.95167637
-1.8575857 -4.4749999 0.95047808
1.8128402 -4.4749994 0.95167625
-1.8575681 -4.4549994 0.95047796
1.8128598 -4.4549994 0.95167625
-1.8575509 -4.4349995 0.9504779
1.8128798 -4.4349995 0.95167625
-1.8575337 -4.4149995 0.95047796
1.8128996 -4.4149995 0.95167625
-1.8575161 -4.3949995 0.95047796
1.8129194 -4.3949995 0.95167625
-1.8574989 -4.3749995 0.95047796
1.8129394 -4.3749995 0.95167625
-1.8574814 -4.3549995 0.95047796
1.812959 -4.3549995 0.95167625
-1.8574674 -4.3349991 0.9504779
1.8129785 -4.3349996 0.95167637
-1.8574644 -4.3149996 0.95047796
1.8129988 -4.3149996 0.95167637
-1.8574632 -4.2949996 0.95047808
1.8130184 -4.2949991 0.95167625
-1.8574619 -4.2749996 0.95047796
1.8130386 -4.2749996 0.95167625
-1.8574606 -4.2549992 0.95047796
1.8130585 -4.2549996 0.95167625
-1.857452 -4.2349997 0.95047796
1.8130782 -4.2349992 0.95167637
-1.8574327 -4.2149992 0.95047796
1.8130985 -4.2149992 0.95167625
-1.8574131 -4.1949992 0.95047796
1.81315 -4.1949992 0.95167637
-1.8573939 -4.1749997 0.95047796
1.8131931 -4.1749992 0.95167625
-1.8573745 -4.1549997 0.95047796
1.8131994 -4.1549997 0.95167625
-1.8573554 -4.1349993 0.95047796
1.8132061 -4.1349993 0.95167625
-1.857336 -4.1149998 0.95047808
1.8132126 -4.1149998 0.95167625
-1.8572804 -4.0949993 0.95047796
1.8131527 -4.0949993 0.95167625
-1.8572242 -4.0749993 0.95047796
1.8130932 -4.0749993 0.95167625
-1.8572041 -4.0549994 0.95047796
1.8130999 -4.0549994 0.95167625
-1.8571837 -4.0349994 0.95047808
1.8131068 -4.0349994 0.95167625
-1.8571637 -4.0149994 0.95047808
1.8131135 -4.0149994 0.95167625
-1.8571432 -3.9949996 0.95047796
1.8131206 -3.9949996 0.95167637
-1.8571253 -3.9749999 0.95047796
1.8131368 -3.9749999 0.95167637
-1.8571241 -3.9549994 0.95047796
1.8131578 -3.9549994 0.95167625
-1.8571173 -3.9349995 0.95047808
1.813179 -3.9349995 0.95167637
-1.857102 -3.9149997 0.95047796
1.8131988 -3.9149995 0.95167625
-1.8570871 -3.8949997 0.95047796
1.8132169 -3.8949997 0.95167625
-1.8570721 -3.8749995 0.95047796
1.813234 -3.8749993 0.95167625
-1.8570572 -3.855 0.95047796
1.8132519 -3.855 0.95167625
-1.857042 -3.8349998 0.95047796
1.8132699 -3.8349998 0.95167625
-1.8570271 -3.8149998 0.95047796
1.8132875 -3.8149993 0.95167625
-1.8570116 -3.7949996 0.95047796
1.8133051 -3.7949996 0.95167625
-1.8569965 -3.7750001 0.95047796
1.8133228 -3.7749996 0.95167637
-1.8569815 -3.7549996 0.95047796
1.8133405 -3.7549999 0.95167637
-1.8569663 -3.7349999 0.95047796
1.8133581 -3.7349999 0.95167625
-1.8569515 -3.7149997 0.95047796
1.8133758 -3.7149997 0.95167637
-1.8569361 -3.6949992 0.95047808
1.8133936 -3.6949997 0.95167625
-1.8569212 -3.6749997 0.95047796
1.8134114 -3.6749997 0.95167625
-1.8569062 -3.6549995 0.95047808
1.8134291 -3.6549995 0.95167637
-1.856891 -3.6349995 0.95047796
1.8134468 -3.6349998 0.95167625
-1.8568758 -3.6149993 0.95047808
1.8134644 -3.6149998 0.95167625
-1.8568609 -3.5949998 0.95047796
1.8134819 -3.5949998 0.95167625
-1.8568455 -3.5749996 0.95047808
1.8134998 -3.5749996 0.95167625
-1.8568306 -3.5549996 0.95047796
1.8135173 -3.5549996 0.95167625
-1.8568157 -3.5349994 0.95047808
1.8135351 -3.5349994 0.95167625
-1.8568008 -3.5149999 0.95047796
1.8135529 -3.5150001 0.95167625
-1.8567855 -3.4949996 0.95047796
1.8135707 -3.4949996 0.95167637
-1.8567699 -3.4749997 0.95047808
1.8135881 -3.4749997 0.95167637
-1.856752 -3.4549994 0.95047796
1.813606 -3.4549994 0.95167625
-1.8567318 -3.4349995 0.95047796
1.8136238 -3.4349995 0.95167625
-1.8567114 -3.4149997 0.95047808
1.8136412 -3.4149997 0.95167625
-1.8566906 -3.3949997 0.95047808
1.8136591 -3.3949997 0.95167625
-1.8566713 -3.3749995 0.95047796
1.8136768 -3.3749995 0.95167625
-1.856663 -3.355 0.95047796
1.8136944 -3.355 0.95167625
-1.8566573 -3.3349998 0.95047796
1.8137188 -3.3349998 0.95167625
-1.8566513 -3.3149998 0.95047796
1.8137658 -3.3149998 0.95167625
-1.8566453 -3.2949994 0.95047796
1.813783 -3.2949994 0.95167637
-1.8566395 -3.2749996 0.95047796
1.8137957 -3.2750001 0.95167625
-1.8566335 -3.2549999 0.95047796
1.8138084 -3.2549999 0.95167637
-1.8566277 -3.2349999 0.95047808
1.8139083 -3.2349999 0.95167625
-1.8564718 -3.2149994 0.95047796
1.8140099 -3.2149994 0.95167625
-1.8564436 -3.1949995 0.95047796
1.8140246 -3.1949997 0.95167637
-1.8564155 -3.1749997 0.95047796
1.814039 -3.1749997 0.95167625
-1.8563875 -3.1549997 0.95047796
1.8140533 -3.1549997 0.95167625
-1.8563592 -3.1349995 0.95047796
1.8140552 -3.1349995 0.95167625
-1.8563315 -3.1149998 0.95047808
1.8140666 -3.1149998 0.95167637
-1.8563035 -3.0949998 0.95047796
1.8140879 -3.0949998 0.95167637
-1.8562796 -3.0749998 0.95047796
1.8141088 -3.0749998 0.95167625
-1.8562601 -3.0549996 0.95047808
1.8141263 -3.0549996 0.95167625
-1.85624 -3.0349996 0.9504779
1.8141394 -3.0349994 0.95167625
-1.8562208 -3.0149999 0.95047796
1.8141525 -3.0149999 0.95167637
-1.8562009 -2.9949999 0.95047808
1.8141654 -2.9949999 0.95167625
-1.8561814 -2.9749997 0.95047796
1.8141787 -2.9749997 0.95167637
-1.8561614 -2.9549999 0.95047808
1.8141916 -2.9549994 0.95167625
-1.8561418 -2.9349999 0.95047808
1.8142046 -2.9349999 0.95167625
-1.856122 -2.9149997 0.95047796
1.8142178 -2.9149997 0.95167625
-1.8561023 -2.8949995 0.95047796
1.8142307 -2.8949995 0.95167625
-1.8560827 -2.8749995 0.95047808
1.8142437 -2.8749995 0.95167625
-1.8560632 -2.8549998 0.95047808
1.8142567 -2.855 0.95167637
-1.8560432 -2.8349998 0.95047796
1.81427 -2.8349998 0.95167637
-1.8560238 -2.8149996 0.95047808
1.814283 -2.8149996 0.95167625
-1.856004 -2.7949996 0.95047796
1.814296 -2.7949994 0.95167637
-1.8559843 -2.7749996 0.95047808
1.8143091 -2.7749996 0.95167625
-1.8559647 -2.7549999 0.95047796
1.8143221 -2.7549999 0.95167625
-1.855945 -2.7349997 0.95047796
1.8143352 -2.7349997 0.95167637
-1.8559252 -2.7149997 0.9504779
1.8143485 -2.7149997 0.95167625
-1.8559055 -2.6949999 0.95047796
1.8143613 -2.6949999 0.95167625
-1.8558859 -2.6749997 0.95047808
1.8143746 -2.6749997 0.95167625
-1.8558661 -2.6549997 0.95047796
1.8143876 -2.6549997 0.95167637
-1.8558466 -2.6349995 0.95047796
1.8144004 -2.6349995 0.95167637
-1.855827 -2.6149998 0.95047796
1.8144134 -2.6149998 0.95167625
-1.8558089 -2.5949998 0.95047796
1.8144264 -2.5949998 0.95167625
-1.8558028 -2.5749998 0.9504779
1.8144395 -2.5749998 0.95167637
-1.8558013 -2.5549996 0.95047796
1.8144525 -2.5549996 0.95167625
-1.8558 -2.5349994 0.95047808
1.8144658 -2.5349994 0.95167625
-1.8557987 -2.5149999 0.95047796
1.8144786 -2.5149999 0.95167637
-1.8557923 -2.4949999 0.95047796
1.8144919 -2.4949999 0.95167637
-1.8557791 -2.4749997 0.95047796
1.8145044 -2.4749997 0.95167625
-1.8557661 -2.4549999 0.95047796
1.8144974 -2.4549999 0.95167625
-1.8557527 -2.4349999 0.95047796
1.8145024 -2.4349999 0.95167625
-1.8557398 -2.4149997 0.95047796
1.8145272 -2.4149997 0.95167625
-1.8557262 -2.3949995 0.95047796
1.8145521 -2.3949995 0.95167625
-1.8557132 -2.3749995 0.95047808
1.8145767 -2.3749995 0.95167625
-1.8553956 -2.355 0.95047796
1.8151649 -2.3549998 0.95167625
-1.8553689 -2.3349998 0.95047796
1.8151785 -2.3349998 0.95167637
-1.8553426 -2.3149996 0.95047796
1.815192 -2.3149996 0.95167637
-1.8553164 -2.2949996 0.95047796
1.8152053 -2.2949996 0.95167625
-1.8552898 -2.2749996 0.95047808
1.8152192 -2.2749996 0.95167637
-1.8552654 -2.2549999 0.95047808
1.8152374 -2.2549999 0.95167625
-1.8552653 -2.2349997 0.95047808
1.8152583 -2.2349997 0.95167637
-1.8552641 -2.2149997 0.95047808
1.8152788 -2.2149997 0.95167625
-1.8552539 -2.1949999 0.9504779
1.8152977 -2.1949997 0.95167637
-1.8552431 -2.175 0.95047808
1.8153155 -2.175 0.95167637
-1.8552328 -2.1549995 0.95047796
1.8153327 -2.1549997 0.95167637
-1.8552223 -2.1349995 0.95047796
1.8153503 -2.1349995 0.95167625
-1.855212 -2.1149995 0.95047796
1.8153677 -2.1149998 0.95167625
-1.8552015 -2.0949998 0.95047796
1.8153852 -2.0949998 0.95167637
-1.855191 -2.0749998 0.95047796
1.8154027 -2.0749998 0.95167625
-1.8551805 -2.0549996 0.95047808
1.8154204 -2.0549996 0.95167625
-1.85517 -2.0349998 0.95047796
1.8154377 -2.0349998 0.95167625
-1.8551598 -2.0149999 0.95047796
1.8154551 -2.0149999 0.95167625
-1.855149 -1.9949999 0.95047808
1.8154726 -1.9949999 0.95167625
-1.8551388 -1.9749997 0.95047808
1.8154901 -1.9749997 0.95167625
-1.8551283 -1.9549999 0.95047808
1.8155075 -1.9549999 0.95167625
-1.855118 -1.9349998 0.95047796
1.8155251 -1.9349997 0.95167625
-1.8551073 -1.915 0.95047808
1.8155426 -1.9149997 0.95167625
-1.8550971 -1.8949997 0.9504779
1.81556 -1.8949997 0.95167625
-1.8550863 -1.8749998 0.95047796
1.8155775 -1.8749998 0.95167637
-1.8550758 -1.8549998 0.95047796
1.8155949 -1.8549999 0.95167625
-1.8550656 -1.8349998 0.95047796
1.8156126 -1.8349998 0.95167625
-1.8550551 -1.8149998 0.95047808
1.81563 -1.8149998 0.95167625
-1.8550446 -1.7949997 0.95047796
1.8156471 -1.7949997 0.95167625
-1.8550342 -1.7749999 0.95047796
1.8156649 -1.7749999 0.95167637
-1.855024 -1.7549999 0.95047796
1.8156824 -1.7549999 0.95167637
-1.8550133 -1.7349999 0.95047796
1.8156998 -1.7349999 0.95167625
-1.8550028 -1.7149998 0.95047808
1.8157171 -1.7149999 0.95167625
-1.8549917 -1.6949997 0.95047796
1.8157346 -1.6949999 0.95167625
-1.8549807 -1.675 0.95047796
1.8157523 -1.675 0.95167625
-1.8549702 -1.655 0.9504779
1.8157694 -1.655 0.95167637
-1.8549592 -1.635 0.95047796
1.8157871 -1.6349999 0.95167625
-1.8549484 -1.6149998 0.95047796
1.8158045 -1.615 0.95167637
-1.8549378 -1.5949998 0.95047796
1.8158274 -1.5949998 0.95167625
-1.8549271 -1.5749998 0.95047796
1.8158636 -1.5749999 0.95167625
-1.8549163 -1.5549998 0.95047796
1.8158789 -1.5549998 0.95167625
-1.8549054 -1.5349998 0.9504779
1.815891 -1.5349998 0.95167637
-1.8548949 -1.5149999 0.95047808
1.8159039 -1.5149999 0.95167625
-1.8549988 -1.4949999 0.95047796
1.8159183 -1.4949999 0.95167625
-1.8551006 -1.4749997 0.95047796
1.8159382 -1.4749998 0.95167625
-1.8550863 -1.4549998 0.9504779
1.815958 -1.4549999 0.95167625
-1.8550717 -1.4349997 0.95047796
1.8159775 -1.4349997 0.95167625
-1.8550577 -1.4149998 0.95047796
1.8159977 -1.415 0.95167625
-1.8550419 -1.3949997 0.95047796
1.8160241 -1.3949997 0.95167637
-1.8550055 -1.375 0.95047796
1.8160547 -1.375 0.95167625
-1.8549703 -1.3549999 0.95047796
1.8160841 -1.3549998 0.95167625
-1.8549442 -1.3349998 0.95047796
1.8161047 -1.3349999 0.95167625
-1.8549182 -1.3149998 0.95047808
1.8161204 -1.3149998 0.95167625
-1.854892 -1.2949998 0.95047796
1.8161366 -1.2949998 0.95167625
-1.8548657 -1.2749999 0.95047796
1.8161526 -1.2749999 0.95167625
-1.8548399 -1.2549999 0.95047796
1.8161685 -1.2549999 0.95167625
-1.8548138 -1.2349999 0.95047796
1.8161844 -1.2349998 0.95167637
-1.8547875 -1.2149999 0.9504779
1.8162003 -1.2149999 0.95167637
-1.8547615 -1.1949998 0.95047796
1.8162159 -1.1949998 0.95167637
-1.8547356 -1.175 0.95047808
1.8162315 -1.175 0.95167625
-1.8547094 -1.1549999 0.95047796
1.8162476 -1.1549999 0.95167625
-1.8546836 -1.1349999 0.95047796
1.8162636 -1.1349999 0.95167625
-1.8546572 -1.1149999 0.95047796
1.8162796 -1.1149999 0.95167625
-1.8546314 -1.095 0.95047796
1.8162954 -1.0949999 0.95167637
-1.8546051 -1.0749998 0.95047796
1.8163078 -1.0749998 0.95167625
-1.854579 -1.0549998 0.95047796
1.8163233 -1.0549998 0.95167625
-1.8545529 -1.0349998 0.95047796
1.8163391 -1.0349998 0.95167625
-1.8545269 -1.015 0.95047808
1.8163548 -1.0149999 0.95167625
-1.8545008 -0.99499989 0.95047796
1.8163707 -0.99499989 0.95167625
-1.8544747 -0.9749999 0.95047796
1.8163868 -0.9749999 0.95167625
-1.8544487 -0.95499992 0.95047796
1.8164028 -0.95499992 0.95167625
-1.8544226 -0.93499994 0.95047796
1.8164189 -0.93499994 0.95167637
-1.8543966 -0.91499996 0.95047796
1.8164346 -0.91499996 0.95167625
-1.8543713 -0.8950001 0.95047796
1.8164505 -0.89499998 0.95167625
-1.8543495 -0.875 0.95047796
1.816466 -0.875 0.95167625
-1.8543291 -0.8549999 0.95047808
1.8164818 -0.8549999 0.95167625
-1.8543081 -0.83499992 0.9504779
1.8164978 -0.83499992 0.95167625
-1.8542871 -0.81499988 0.95047796
1.8165138 -0.81499994 0.95167637
-1.8542693 -0.7949999 0.95047796
1.8165299 -0.79499984 0.95167625
-1.8542509 -0.77499992 0.95047808
1.8165098 -0.77499986 0.95167625
-1.8542325 -0.75499994 0.95047808
1.816514 -0.75499994 0.95167625
-1.8542144 -0.7349999 0.95047808
1.8165386 -0.7349999 0.95167625
-1.8541962 -0.71499991 0.95047796
1.8165636 -0.71499991 0.95167625
-1.8541782 -0.69499993 0.95047796
1.8165882 -0.69499993 0.95167625
-1.8541603 -0.67499989 0.95047796
1.8166126 -0.67499995 0.95167625
-1.8541422 -0.65499991 0.95047796
1.8166373 -0.65499991 0.95167625
-1.8541238 -0.63499993 0.95047796
1.8166622 -0.63499993 0.95167625
-1.8541056 -0.61499995 0.95047796
1.8166864 -0.61499995 0.95167625
-1.8540872 -0.59499991 0.95047796
1.8167112 -0.59499991 0.95167625
-1.8540691 -0.57499993 0.9504779
1.816736 -0.57499993 0.95167625
-1.8540512 -0.55500001 0.95047796
1.8167604 -0.55499995 0.95167637
-1.8540331 -0.53499991 0.95047808
1.8167855 -0.53499991 0.95167637
-1.8540148 -0.51499993 0.95047808
1.8168099 -0.51499993 0.95167625
-1.8539969 -0.49499997 0.95047808
1.8168341 -0.49499995 0.95167625
-1.8539785 -0.47499999 0.95047808
1.8168552 -0.47499996 0.95167637
-1.85396 -0.45499998 0.95047796
1.8168783 -0.45499998 0.95167637
-1.8539422 -0.43499994 0.95047796
1.8169041 -0.43499994 0.95167625
-1.8539242 -0.41499996 0.95047796
1.8169308 -0.41499996 0.95167637
-1.853906 -0.39499992 0.95047808
1.8169571 -0.39499992 0.95167625
-1.8538895 -0.37499994 0.95047808
1.8169835 -0.37499994 0.95167625
-1.8538736 -0.35499993 0.95047796
1.8170099 -0.35499993 0.95167625
-1.8538582 -0.33499995 0.95047796
1.8170363 -0.33499995 0.95167625
-1.8538424 -0.31499997 0.95047808
1.817063 -0.31499997 0.95167625
-1.8538271 -0.29499996 0.95047796
1.8170891 -0.29499996 0.95167625
-1.8538113 -0.27499998 0.95047796
1.8171161 -0.27499998 0.95167625
-1.8537956 -0.25499997 0.95047796
1.8171484 -0.25499997 0.95167625
-1.8537805 -0.23499998 0.95047796
1.8171669 -0.23499998 0.95167637
-1.8537699 -0.215 0.95047796
1.8171623 -0.215 0.95167625
-1.8537773 -0.19499996 0.95047796
1.8171976 -0.19499996 0.95167637
-1.8537811 -0.17499997 0.95047796
1.8165233 -0.17499997 0.95167625
-1.8536441 -0.15499997 0.95047796
1.480671 -0.14999998 0.95956993
1.7421041 -0.14999998 0.95562309
1.8098699 -0.15624997 0.95019627
-1.8535599 -0.13499999 0.95047796
1.1038791 -0.13999999 0.95562309
1.1354221 -0.12999998 0.94772947
1.2965401 -0.12999998 0.94378263
1.3857261 -0.13999999 0.95167631
1.6575501 -0.13999999 0.94772947
1.80305 -0.13999999 0.94378263
-1.8524151 -0.11499999 0.95047796
-1.8436818 -0.099999987 0.94869697
-1.8387121 -0.094999984 0.95047802
-1.7090535 -7.9733329 0.96828884
-1.7165064 -7.9549994 0.97006994
0.79025602 -7.9599996 0.96746361
0.84861112 -7.9499993 0.97535729
0.88591909 -7.9599996 0.96351683
1.1218781 -7.9499993 0.97141039
1.3901751 -7.9499993 0.96746355
1.6523461 -7.9499993 0.96351677
-1.7167939 -7.9349999 0.97006989
0.81927204 -7.9399996 0.97930408
1.0030841 -7.9299994 0.97930402
1.0220361 -7.9399996 0.97535723
1.2560791 -7.9299994 0.97535723
1.3284881 -7.9399996 0.97141039
1.5552121 -7.9299994 0.97141039
1.5951191 -7.9399996 0.96746355
1.6540388 -7.9333329 0.96483237
-1.7167735 -7.914999 0.97006989
1.1695731 -7.9199991 0.97930402
1.3908471 -7.9099994 0.97930402
1.4522471 -7.9199991 0.97535723
1.6548859 -7.9142847 0.96859121
-1.7167534 -7.895 0.97006989
1.6279751 -7.8999991 0.97930402
1.6565448 -7.894444 0.97053325
-1.7167331 -7.8749986 0.97006983
1.2869531 -7.8699994 0.97930402
1.5502021 -7.8799992 0.97930402
1.5876821 -7.8699994 0.97535723
1.6573963 -7.8759995 0.97062111
1.66119 -7.874999 0.96351677
-1.7166868 -7.8549995 0.97006989
1.0537521 -7.8499994 0.97930402
1.1298311 -7.8549995 0.97733063
1.3512051 -7.8599992 0.97535723
1.4055371 -7.8499994 0.97141039
1.6199881 -7.8599992 0.97141039
1.6548556 -7.8549991 0.96549016
-1.71516 -7.8349996 0.97006989
0.63132638 -7.8399992 0.97986251
0.6498552 -7.8399997 0.97959566
0.66838408 -7.8399992 0.97932851
0.68897164 -7.8399992 0.97903109
0.70852983 -7.8399997 0.97876346
0.72191179 -7.8399997 0.97861481
1.0537632 -7.8339996 0.97614658
1.0750751 -7.8299994 0.96746355
1.1347702 -7.8399992 0.97141039
1.2137971 -7.8299994 0.96351677
1.3980721 -7.8399992 0.96746355
1.6531332 -7.8399992 0.96351677
-1.7091036 -7.8149991 0.97006994
-0.73269475 -7.8199997 0.97944987
-0.71004021 -7.8199997 0.97916192
-0.68944514 -7.8199997 0.97884214
-0.66885012 -7.8199997 0.97852248
-0.64825517 -7.8199997 0.97820312
-0.63177907 -7.8199997 0.97794724
-0.611184 -7.8199997 0.97769213
-0.59058893 -7.8199997 0.97737294
-0.56999391 -7.8199997 0.97705305
-0.5493989 -7.8199997 0.97673386
-0.53292286 -7.8199997 0.97647858
1.0536834 -7.8149996 0.97141039
-1.7055131 -7.7999992 0.96294558
-1.106674 -7.7940001 0.97149479
1.053703 -7.7949996 0.97141045
-1.1066797 -7.7749991 0.97006989
1.0537227 -7.7749991 0.97141039
-1.1066617 -7.7549996 0.97006989
1.0537422 -7.7549996 0.97141039
-1.1066424 -7.7349987 0.97006994
1.0537616 -7.7349992 0.97141039
-1.1066228 -7.7149997 0.97006983
1.0537813 -7.7149992 0.97141039
-1.1066031 -7.6949992 0.97006994
1.0538008 -7.6949987 0.97141039
-1.1066043 -7.6759996 0.96864498
1.0538152 -7.6799994 0.97141039
1.7967517 -7.6699991 0.97141039
1.8082145 -7.6549988 0.97141039
-1.8606621 -7.6333327 0.97481948
1.809693 -7.6349993 0.97141039
-1.8606734 -7.6149998 0.97006994
1.8097064 -7.6149993 0.97141039
-1.8606437 -7.5949988 0.97006989
1.80972 -7.5949988 0.97141039
-1.8606133 -7.5749993 0.97006989
1.8097334 -7.5749993 0.97141039
-1.8605828 -7.5549989 0.97006989
1.809747 -7.5549989 0.97141039
-1.8605528 -7.5349998 0.97006989
1.8097607 -7.5349989 0.97141039
-1.8605226 -7.5149994 0.97006989
1.8097742 -7.5149994 0.97141045
-1.8604923 -7.4949989 0.97006989
1.8097878 -7.4949999 0.97141045
-1.860466 -7.4749985 0.97006989
1.8098122 -7.4749999 0.97141045
-1.8604449 -7.4549994 0.97006989
1.8098409 -7.4549994 0.97141039
-1.860424 -7.4349995 0.97006989
1.8098701 -7.4349999 0.97141039
-1.8604027 -7.4149985 0.97006989
1.8098993 -7.4149985 0.97141039
-1.8603815 -7.394999 0.97006989
1.8099282 -7.394999 0.97141039
-1.8603606 -7.3749986 0.97006989
1.8099568 -7.375 0.97141039
-1.8603395 -7.3549991 0.97006983
1.8099769 -7.3549986 0.97141039
-1.8603182 -7.3349991 0.97006983
1.8099934 -7.3349991 0.97141039
-1.8602968 -7.3149991 0.97006989
1.81001 -7.3149996 0.97141039
-1.8602757 -7.2949996 0.97006989
1.8100265 -7.2949996 0.97141039
-1.8602546 -7.2749996 0.97006989
1.8100427 -7.2749991 0.97141039
-1.8602337 -7.2549996 0.97006994
1.810059 -7.2549996 0.97141039
-1.8602127 -7.2349992 0.97006989
1.8100754 -7.2349992 0.97141039
-1.8601912 -7.2149997 0.97006989
1.810092 -7.2149992 0.97141039
-1.8601704 -7.1949992 0.97006989
1.8101084 -7.1949997 0.97141039
-1.8601513 -7.1749992 0.97006994
1.8101248 -7.1750002 0.97141039
-1.8601356 -7.1549988 0.97006989
1.8101412 -7.1549988 0.97141039
-1.8601226 -7.1349988 0.97006989
1.8101575 -7.1349993 0.97141039
-1.8601102 -7.1149998 0.97006989
1.810174 -7.1150002 0.97141039
-1.8600973 -7.0949993 0.97006989
1.8101902 -7.0949988 0.97141039
-1.8600845 -7.0749993 0.97006994
1.8102068 -7.0749993 0.97141039
-1.860088 -7.0549989 0.96828878
-1.8599942 -7.0549994 0.97897536
1.8102232 -7.0549994 0.97141039
-1.8600835 -7.0355554 0.96749717
-1.8599874 -7.0333328 0.97778797
1.8102394 -7.0349989 0.97141039
-1.8600808 -7.0149999 0.96650767
-1.8599792 -7.0149994 0.97719425
1.810256 -7.0149994 0.97141039
-1.860068 -6.9949989 0.96650773
-1.8599669 -6.9949994 0.97719425
1.8102722 -6.9949989 0.97141039
-1.8600554 -6.9749994 0.96650773
-1.8599541 -6.9749994 0.97719425
1.8102887 -6.9749999 0.97141039
-1.8600601 -6.9549999 0.96472669
-1.8599582 -6.9549999 0.97541326
1.810305 -6.9550004 0.97141039
-1.8600475 -6.934999 0.96472669
-1.8599459 -6.9349995 0.97541314
1.8103218 -6.934999 0.97141039
-1.8600348 -6.9149995 0.96472669
-1.8599333 -6.914999 0.97541326
1.8103383 -6.9149985 0.97141039
-1.8600359 -6.8949995 0.96294558
-1.8599392 -6.894999 0.97363216
1.8103542 -6.894999 0.97141039
-1.8600233 -6.874999 0.96294558
-1.8599267 -6.874999 0.9736321
1.8103708 -6.874999 0.97141039
-1.8600271 -6.8549995 0.96116453
-1.8599285 -6.8549995 0.97185099
1.8103873 -6.8549995 0.97141039
-1.8600051 -6.8399992 0.96116453
-1.859912 -6.8345447 0.9708795
1.8104036 -6.8349991 0.97141039
-1.8598905 -6.8149991 0.97006994
1.8104198 -6.8149996 0.97141039
-1.8598615 -6.7949996 0.97006994
1.8104337 -6.7949996 0.97141039
-1.8598322 -6.7749996 0.97006994
1.8104461 -6.7749991 0.97141039
-1.8598028 -6.7549992 0.97006994
1.8104589 -6.7549987 0.97141039
-1.8597736 -6.7349992 0.97006989
1.8104718 -6.7349992 0.97141039
-1.8597442 -6.7149997 0.97006983
1.8104845 -6.7149992 0.97141039
-1.8597149 -6.6949997 0.97006994
1.8104975 -6.6949997 0.97141039
-1.8596874 -6.6749992 0.97006994
1.810515 -6.6749992 0.97141039
-1.8596615 -6.6549988 0.97006994
1.8105339 -6.6549988 0.97141039
-1.8596349 -6.6349988 0.97006994
1.810553 -6.6349993 0.97141039
-1.8596088 -6.6149998 0.97006989
1.8105717 -6.6149993 0.97141039
-1.8595825 -6.5949993 0.97006989
1.8105905 -6.5949998 0.97141039
-1.8595539 -6.5749989 0.97006989
1.8106105 -6.5749993 0.97141039
-1.8594861 -6.5549989 0.97006989
1.8106312 -6.5549989 0.97141039
-1.8594226 -6.5349994 0.97006994
1.8106524 -6.5349998 0.97141045
-1.8593984 -6.5149999 0.97006989
1.8106749 -6.5149994 0.97141039
-1.8593765 -6.4949989 0.97006994
1.8107008 -6.4949989 0.97141045
-1.8593549 -6.4749999 0.97006989
1.8107278 -6.4749994 0.97141039
-1.8593327 -6.4549994 0.97006989
1.8107548 -6.4549994 0.97141039
-1.8593106 -6.4349999 0.97006983
1.8107815 -6.434999 0.97141039
-1.8592888 -6.414999 0.97006989
1.8108084 -6.4149995 0.97141039
-1.8592671 -6.394999 0.97006989
1.8108352 -6.394999 0.97141039
-1.8592452 -6.3749986 0.97006989
1.8108622 -6.3749986 0.97141039
-1.859223 -6.3549995 0.97006989
1.8108889 -6.3549995 0.97141045
-1.8592013 -6.3349996 0.97006989
1.8109157 -6.3349991 0.97141039
-1.8591791 -6.3149986 0.97006994
1.8109426 -6.3149996 0.97141039
-1.8591572 -6.2950001 0.97006989
1.8109694 -6.2949996 0.97141039
-1.8591355 -6.2749996 0.97006989
1.8109964 -6.2749991 0.97141039
-1.8591133 -6.2549992 0.97006983
1.8110231 -6.2549992 0.97141039
-1.8590914 -6.2349992 0.97006994
1.8110502 -6.2349992 0.97141045
-1.8590695 -6.2149997 0.97006994
1.8110768 -6.2149992 0.97141039
-1.8590478 -6.1949997 0.97006989
1.8111036 -6.1949992 0.97141039
-1.859026 -6.1749992 0.97006989
1.8111305 -6.1749997 0.97141039
-1.8590037 -6.1549988 0.97006989
1.8111575 -6.1549997 0.97141045
-1.8589821 -6.1349988 0.97006989
1.8111845 -6.1349993 0.97141039
-1.85896 -6.1149998 0.97006989
1.811211 -6.1149993 0.97141039
-1.8589381 -6.0949993 0.97006989
1.8112379 -6.0949998 0.97141039
-1.8589163 -6.0749989 0.97006994
1.8112646 -6.0749989 0.97141039
-1.8589 -6.0549989 0.97006994
1.8112915 -6.0549989 0.97141039
-1.8588963 -6.0349998 0.97006989
1.8113186 -6.0349994 0.97141045
-1.8588947 -6.0149994 0.97006994
1.8113453 -6.0149999 0.97141039
-1.8588935 -5.9949989 0.97006989
1.8113724 -5.9949994 0.97141039
-1.8588918 -5.9749999 0.97006994
1.8113991 -5.9749994 0.97141039
-1.8588799 -5.9549994 0.97006989
1.8114262 -5.9549994 0.97141045
-1.8588606 -5.9349999 0.97006989
1.811455 -5.9349995 0.97141039
-1.8588411 -5.914999 0.97006989
1.8115107 -5.9149995 0.97141039
-1.8588215 -5.895 0.97006994
1.8115442 -5.8949995 0.97141039
-1.8588023 -5.8749986 0.97006994
1.8115631 -5.874999 0.97141039
-1.8587831 -5.8549995 0.97006989
1.811582 -5.8549995 0.97141039
-1.8587637 -5.8349991 0.97006989
1.8116004 -5.8349996 0.97141039
-1.8586768 -5.8149991 0.97006989
1.8116224 -5.8149996 0.97141039
-1.8586625 -5.7949996 0.97006994
1.8116455 -5.7949996 0.97141039
-1.8586487 -5.7749996 0.97006989
1.8116678 -5.7749996 0.97141039
-1.8586345 -5.7549992 0.97006989
1.8116907 -5.7549996 0.97141039
-1.8586198 -5.7349992 0.97006989
1.8117138 -5.7349992 0.97141039
-1.8586054 -5.7149997 0.97006989
1.8117263 -5.7149992 0.97141039
-1.858586 -5.6949997 0.97006989
1.8117279 -5.6949992 0.97141045
-1.8585653 -5.6749992 0.97006989
1.8117292 -5.6749992 0.97141039
-1.85855 -5.6550002 0.97006989
1.8117346 -5.6550002 0.97141039
-1.8585349 -5.6349988 0.97006989
1.811747 -5.6349993 0.97141045
-1.8585196 -5.6149998 0.97006989
1.8117602 -5.6149998 0.97141045
-1.8585044 -5.5949993 0.97006989
1.8117731 -5.5949988 0.97141039
-1.8584894 -5.5749993 0.97006989
1.8117863 -5.5749993 0.97141039
-1.8584743 -5.5549989 0.97006989
1.811799 -5.5549994 0.97141039
-1.8584591 -5.5349998 0.97006989
1.8118122 -5.5349994 0.97141039
-1.8584441 -5.5149994 0.97006989
1.811825 -5.5149994 0.97141039
-1.8584291 -5.4949989 0.97006989
1.8118382 -5.4949994 0.97141039
-1.8584141 -5.4749999 0.97006994
1.8118513 -5.4749994 0.97141039
-1.8583986 -5.4549994 0.97006994
1.8118643 -5.4549999 0.97141039
-1.8583837 -5.4349995 0.97006989
1.8118773 -5.4349995 0.97141039
-1.8583685 -5.414999 0.97006989
1.8118902 -5.414999 0.97141039
-1.8583533 -5.395 0.97006983
1.8119034 -5.3949995 0.97141039
-1.8583384 -5.375 0.97006989
1.8119164 -5.3749995 0.97141039
-1.8583232 -5.3549991 0.97006994
1.8119293 -5.3549995 0.97141039
-1.8583082 -5.3349991 0.97006994
1.8119425 -5.3349991 0.97141045
-1.8582932 -5.3149991 0.97006989
1.8119552 -5.3149996 0.97141039
-1.8582778 -5.2949996 0.97006989
1.8119684 -5.2949996 0.97141039
-1.8582629 -5.2749991 0.97006989
1.8119814 -5.2749991 0.97141039
-1.8582476 -5.2549992 0.97006989
1.8119946 -5.2549992 0.97141039
-1.8582326 -5.2349992 0.97006989
1.8120075 -5.2349992 0.97141039
-1.8582174 -5.2149997 0.97006989
1.8120207 -5.2149992 0.97141039
-1.8582023 -5.1949992 0.97006983
1.8120337 -5.1949992 0.97141039
-1.8581842 -5.1749992 0.97006989
1.8120464 -5.1749997 0.97141039
-1.8581635 -5.1549997 0.97006989
1.8120598 -5.1549997 0.97141039
-1.8581432 -5.1349998 0.97006989
1.8120725 -5.1349993 0.97141039
-1.8581225 -5.1149993 0.97006989
1.8120857 -5.1149993 0.97141039
-1.8581051 -5.0949993 0.97006989
1.8120987 -5.0949993 0.97141039
-1.8580979 -5.0749993 0.97006983
1.8121121 -5.0749993 0.97141039
-1.858092 -5.0549994 0.97006989
1.8121446 -5.0549994 0.97141039
-1.858086 -5.0349994 0.97006989
1.8121979 -5.0349994 0.97141039
-1.8580796 -5.0149994 0.97006994
1.8122122 -5.0149994 0.97141039
-1.8580736 -4.9949994 0.97006989
1.8122247 -4.9949994 0.97141039
-1.8580679 -4.9749999 0.97006983
1.8122375 -4.9749994 0.97141039
-1.857976 -4.9549999 0.97006994
1.8125747 -4.9549994 0.97141045
-1.8578734 -4.9349995 0.97006994
1.8126007 -4.9349995 0.97141039
-1.8578531 -4.9149995 0.97006983
1.8126262 -4.9149995 0.97141039
-1.8578333 -4.895 0.97006989
1.8126522 -4.8949995 0.97141039
-1.8578123 -4.8749995 0.97006994
1.812678 -4.875 0.97141045
-1.8577918 -4.8549991 0.97006989
1.8126924 -4.8549995 0.97141039
-1.8577547 -4.8349996 0.97006989
1.812694 -4.8349991 0.97141039
-1.8577161 -4.8149986 0.97006989
1.8126955 -4.8149996 0.97141039
-1.8576971 -4.7949996 0.97006989
1.8127048 -4.7949996 0.97141039
-1.8576803 -4.7749991 0.97006994
1.8127239 -4.7749996 0.97141039
-1.857663 -4.7549996 0.97006983
1.8127438 -4.7549996 0.97141039
-1.8576452 -4.7349992 0.97006989
1.8127636 -4.7349992 0.97141039
-1.8576279 -4.7149997 0.97006989
1.8127836 -4.7149992 0.97141039
-1.8576107 -4.6949997 0.97006989
1.8128033 -4.6949997 0.97141039
-1.8575931 -4.6749992 0.97006989
1.8128231 -4.6749992 0.97141039
-1.8575755 -4.6549993 0.97006989
1.812843 -4.6549997 0.97141039
-1.8575584 -4.6349998 0.97006994
1.8128628 -4.6349993 0.97141039
-1.857541 -4.6149998 0.97006989
1.8128828 -4.6149998 0.97141039
-1.8575236 -4.5949993 0.97006989
1.8129025 -4.5949993 0.97141039
-1.8575062 -4.5749993 0.97006994
1.8129222 -4.5749993 0.97141039
-1.8574886 -4.5549998 0.97006994
1.8129421 -4.5549994 0.97141039
-1.8574713 -4.5349994 0.97006989
1.8129619 -4.5349994 0.97141039
-1.8574542 -4.5149994 0.97006989
1.8129818 -4.5149994 0.97141039
-1.8574365 -4.4949994 0.97006989
1.8130014 -4.4949994 0.97141039
-1.857419 -4.4749994 0.97006994
1.8130213 -4.4749994 0.97141039
-1.8574018 -4.4549994 0.97006989
1.813041 -4.4549994 0.97141039
-1.8573842 -4.4349999 0.97006994
1.813061 -4.4349995 0.97141039
-1.857367 -4.4149995 0.97006983
1.8130808 -4.4149995 0.97141039
-1.8573498 -4.395 0.97006989
1.8131008 -4.3949995 0.97141039
-1.8573321 -4.3749995 0.97006989
1.8131206 -4.3749995 0.97141039
-1.8573149 -4.3549995 0.97006994
1.8131405 -4.3549995 0.97141039
-1.8572973 -4.3349996 0.97006989
1.8131602 -4.3349996 0.97141039
-1.8572823 -4.3149991 0.97006994
1.81318 -4.3149996 0.97141045
-1.8572768 -4.2949996 0.97006989
1.8132 -4.2949991 0.97141039
-1.8572755 -4.2749991 0.97006989
1.8132197 -4.2749996 0.97141039
-1.8572742 -4.2549992 0.97006989
1.8132397 -4.2549992 0.97141039
-1.8572726 -4.2349992 0.97006994
1.8132591 -4.2349997 0.97141039
-1.8572599 -4.2149997 0.97006989
1.8132792 -4.2149992 0.97141039
-1.8572407 -4.1949997 0.97006983
1.8133023 -4.1949997 0.97141039
-1.8572211 -4.1749992 0.97006994
1.8133593 -4.1749997 0.97141039
-1.8572019 -4.1550002 0.97006994
1.8133805 -4.1549997 0.97141039
-1.8571825 -4.1349998 0.97006989
1.8133866 -4.1349993 0.97141039
-1.8571633 -4.1149998 0.97006989
1.8133934 -4.1149998 0.97141039
-1.8571115 -4.0949993 0.97006994
1.8133428 -4.0949993 0.97141039
-1.8570589 -4.0749993 0.97006994
1.8132929 -4.0749993 0.97141039
-1.8570381 -4.0549998 0.97006989
1.8132995 -4.0549994 0.97141039
-1.8570181 -4.0349994 0.97006983
1.8133065 -4.0349994 0.97141039
-1.8569981 -4.0149994 0.97006989
1.8133132 -4.0149994 0.97141039
-1.8569781 -3.9949996 0.97007006
1.8133266 -3.9949996 0.97141039
-1.8569695 -3.9750001 0.97006994
1.8133472 -3.9749999 0.97141039
-1.8569666 -3.9549992 0.97006994
1.8133682 -3.9549994 0.97141039
-1.8569522 -3.9349995 0.97006994
1.8133873 -3.9349995 0.97141039
-1.8569371 -3.9149997 0.97006989
1.8134053 -3.9149995 0.97141039
-1.8569218 -3.8949997 0.97006989
1.8134229 -3.8949997 0.97141039
-1.8569069 -3.8749998 0.97006994
1.8134406 -3.8749993 0.97141039
-1.8568921 -3.8549995 0.97006989
1.8134587 -3.855 0.97141039
-1.856877 -3.8349998 0.97006983
1.813476 -3.8349996 0.97141039
-1.8568621 -3.8149998 0.97006989
1.8134937 -3.8149998 0.97141039
-1.8568468 -3.7949994 0.97006989
1.8135113 -3.7949996 0.97141039
-1.8568317 -3.7749996 0.97006989
1.8135293 -3.7749996 0.97141039
-1.8568166 -3.7549999 0.97006989
1.8135468 -3.7549999 0.97141039
-1.8568016 -3.7349997 0.97006994
1.8135645 -3.7349999 0.97141039
-1.8567864 -3.7149999 0.97006994
1.8135821 -3.7149997 0.97141039
-1.8567711 -3.6949997 0.97006994
1.8135999 -3.6949992 0.97141039
-1.8567559 -3.6749995 0.97006989
1.8136177 -3.6749997 0.97141039
-1.8567411 -3.6549997 0.97006989
1.8136352 -3.655 0.97141039
-1.8567261 -3.6349995 0.97006989
1.813653 -3.6349998 0.97141039
-1.8567108 -3.6149998 0.97006983
1.8136704 -3.6149998 0.97141039
-1.856696 -3.595 0.97006994
1.8136885 -3.5949998 0.97141039
-1.8566805 -3.5749996 0.97006994
1.8137058 -3.5749996 0.97141039
-1.8566656 -3.5549996 0.97006994
1.8137236 -3.5549996 0.97141039
-1.8566507 -3.5349996 0.97006994
1.8137414 -3.5349994 0.97141039
-1.8566356 -3.5149996 0.97006989
1.8137592 -3.5149999 0.97141039
-1.8566203 -3.4949996 0.97006983
1.8137766 -3.4949996 0.97141045
-1.8566051 -3.4749997 0.97006989
1.8137945 -3.4749997 0.97141039
-1.8565902 -3.4549997 0.97006983
1.8138123 -3.4549994 0.97141039
-1.8565735 -3.4349995 0.97006994
1.8138298 -3.4349995 0.97141039
-1.8565531 -3.4149992 0.97006994
1.8138475 -3.4149997 0.97141039
-1.8565326 -3.3949997 0.97006989
1.8138653 -3.3949997 0.97141039
-1.856512 -3.3749993 0.97006994
1.8138828 -3.3749995 0.97141039
-1.8564945 -3.3549995 0.97006994
1.8139006 -3.355 0.97141039
-1.8564881 -3.3349993 0.97006983
1.8139184 -3.3349998 0.97141039
-1.856482 -3.3149996 0.97006989
1.813949 -3.3149998 0.97141039
-1.8564758 -3.2949998 0.97006994
1.8139862 -3.2949994 0.97141045
-1.85647 -3.2749996 0.97006989
1.8139988 -3.2750001 0.97141039
-1.8564643 -3.2549999 0.97006994
1.8140118 -3.2549999 0.97141039
-1.8564583 -3.2349999 0.97006994
1.8141136 -3.2349999 0.97141039
-1.8563062 -3.2149994 0.97006994
1.8142169 -3.2149997 0.97141039
-1.8562779 -3.1949997 0.97006994
1.8142315 -3.1949995 0.97141039
-1.8562499 -3.175 0.97006989
1.8142459 -3.175 0.97141039
-1.8562217 -3.1549997 0.97006989
1.8142544 -3.1549997 0.97141039
-1.8561937 -3.1349995 0.97006989
1.8142611 -3.1349995 0.97141039
-1.8561629 -3.1149998 0.97006989
1.8142818 -3.1149998 0.97141039
-1.8561373 -3.0949996 0.97006989
1.8143022 -3.0949998 0.97141039
-1.8561174 -3.0749998 0.97006989
1.8143181 -3.0749998 0.97141039
-1.8560978 -3.0549996 0.97006989
1.8143314 -3.0549996 0.97141039
-1.8560778 -3.0349996 0.97006983
1.8143444 -3.0349994 0.97141039
-1.8560581 -3.0149996 0.97006983
1.8143575 -3.0149999 0.97141039
-1.8560386 -2.9949999 0.97006989
1.8143705 -2.9949999 0.97141039
-1.8560189 -2.9749997 0.97006989
1.8143837 -2.9749997 0.97141039
-1.8559991 -2.9549997 0.97006989
1.8143966 -2.9549999 0.97141039
-1.8559794 -2.9349995 0.97006989
1.8144096 -2.9349995 0.97141039
-1.8559598 -2.9149997 0.97007006
1.8144226 -2.9149997 0.97141039
-1.8559402 -2.8949995 0.97006989
1.8144357 -2.8949995 0.97141039
-1.8559204 -2.8749993 0.97006989
1.814449 -2.8749995 0.97141045
-1.8559006 -2.8549995 0.97006994
1.8144617 -2.855 0.97141039
-1.8558811 -2.8349998 0.97006983
1.8144748 -2.8349998 0.97141045
-1.8558615 -2.8149996 0.97006989
1.8144878 -2.8149996 0.97141039
-1.8558416 -2.7949994 0.97006989
1.8145012 -2.7949996 0.97141039
-1.855822 -2.7749996 0.97006994
1.8145142 -2.7750001 0.97141039
-1.8558024 -2.7549999 0.97006994
1.8145272 -2.7549999 0.97141045
-1.8557826 -2.7349997 0.97006994
1.8145403 -2.7349997 0.97141039
-1.8557628 -2.7149994 0.97006989
1.814553 -2.7149997 0.97141039
-1.8557431 -2.6949999 0.97006994
1.8145664 -2.6950002 0.97141039
-1.8557235 -2.675 0.97006989
1.8145794 -2.6749997 0.97141039
-1.8557037 -2.6549997 0.97006989
1.8145926 -2.6549997 0.97141039
-1.8556842 -2.6349995 0.97006994
1.8146054 -2.6349995 0.97141039
-1.8556644 -2.6149998 0.97006994
1.8146187 -2.6149998 0.97141039
-1.8556446 -2.595 0.97006989
1.8146315 -2.5949998 0.97141039
-1.8556257 -2.5749998 0.97006994
1.8146446 -2.5749998 0.97141039
-1.8556165 -2.5549996 0.97006994
1.8146576 -2.5549996 0.97141039
-1.8556145 -2.5349996 0.97006994
1.8146706 -2.5349996 0.97141045
-1.8556132 -2.5150001 0.97006994
1.8146837 -2.5150001 0.97141045
-1.8556113 -2.4949999 0.97006989
1.8146967 -2.4949999 0.97141045
-1.8556027 -2.4749997 0.97006989
1.8147099 -2.4749997 0.97141039
-1.8555895 -2.4549997 0.97006994
1.8147207 -2.4549999 0.97141039
-1.8555765 -2.4349999 0.97006994
1.8147122 -2.4349999 0.97141039
-1.8555633 -2.4149997 0.97006994
1.8147306 -2.4149997 0.97141039
-1.8555502 -2.3949995 0.97006994
1.8147551 -2.3949995 0.97141039
-1.8555368 -2.3749993 0.97006989
1.8147799 -2.3749995 0.97141039
-1.855219 -2.355 0.97006989
1.8153378 -2.3549995 0.97141039
-1.8551928 -2.3349998 0.97006989
1.8153509 -2.3349998 0.97141039
-1.8551663 -2.3149996 0.97006989
1.8153648 -2.3149996 0.97141039
-1.8551399 -2.2949994 0.97006989
1.8153782 -2.2949996 0.97141045
-1.8551134 -2.2749999 0.97006983
1.8153948 -2.2749996 0.97141039
-1.8551025 -2.2549999 0.97006994
1.8154154 -2.2549999 0.97141039
-1.8551041 -2.2349997 0.97006994
1.8154361 -2.2349997 0.97141039
-1.855095 -2.2149994 0.97006989
