# .PCD v0.7 - Point Cloud Data file format
VERSION 0.7
FIELDS x y z
SIZE 4 4 4
TYPE F F F
COUNT 1 1 1
WIDTH 1502
HEIGHT 1
VIEWPOINT 0 0 0 1 0 0 0
POINTS 1502
DATA ascii
0.10428413 -5.5799994 1.9308403
0.68279541 -5.5800004 1.9231163
0.72397041 -5.5799999 1.9225438
1.1754382 -5.5953832 1.9162184
0.028110027 -5.545001 1.931674
0.073402733 -5.5450006 1.9310737
0.10428413 -5.5449996 1.9306494
0.68279529 -5.5450006 1.922897
0.72397047 -5.5450006 1.9223081
-1.2209196 -5.4649992 1.9091473
-1.1345881 -5.4799995 1.9371994
1.1956887 -5.476666 1.9094381
1.2102073 -5.4674993 1.9077935
1.2182652 -5.4299994 1.9048334
1.2183807 -5.3799992 1.9048332
-1.2125592 -5.3299999 1.9299133
1.2184246 -5.329999 1.9048334
-1.2125592 -5.2800002 1.9300865
1.2184403 -5.2799988 1.9028599
-1.2128214 -5.2277775 1.9254282
-1.2136786 -5.1799998 1.9229898
-1.2147602 -5.1281819 1.9186757
-1.2152438 -5.0774999 1.9166733
1.2059356 -5.0599995 1.9087802
-1.2202619 -5.0305262 1.9127804
0.89896506 -5.02 1.9493929
1.2116411 -5.0439992 1.9083855
-1.2217693 -4.9775996 1.9102553
0.90514135 -4.9749999 1.9487765
-1.2241056 -4.9303699 1.9079849
0.91406268 -4.9266667 1.9476837
-1.2234235 -4.8793101 1.9056785
0.92161149 -4.8800006 1.9473886
1.1712387 -4.8649993 1.9324611
-1.2214316 -4.8307991 1.9029697
0.93007523 -4.831111 1.9458185
1.1766331 -4.8299994 1.9296982
-1.2210957 -4.7955551 1.9012239
-0.96817291 -4.7699995 1.9079895
0.93864286 -4.7790904 1.9454972
1.1843399 -4.7799997 1.9257514
-0.97532916 -4.7303843 1.9126753
0.94590473 -4.7340002 1.9454216
0.95386529 -4.7133336 1.940586
1.1920469 -4.7299995 1.9218048
-0.98431826 -4.6828566 1.9098896
0.94837523 -4.6999998 1.9498069
0.95692718 -4.6776924 1.9430771
1.1982125 -4.6899991 1.9186473
1.2020656 -4.6649995 1.9166739
-1.2317019 -4.6399999 1.9055852
-0.99623507 -4.6139994 1.9293627
0.96951157 -4.6230769 1.9316381
1.2100838 -4.6345 1.9216017
-1.0032909 -4.5749998 1.9333827
-0.99873573 -4.5966659 1.9431363
0.97871208 -4.5797906 1.9269794
1.2137367 -4.5781813 1.9246285
-1.01167 -4.5286951 1.9384384
0.98657227 -4.5315785 1.9277443
1.1735941 -4.5099993 1.9068067
1.2169013 -4.5299997 1.9241307
-1.0211387 -4.4790902 1.934069
0.99215943 -4.4837036 1.9340981
1.0029541 -4.4699998 1.9126889
1.1726021 -4.4599996 1.9028599
1.217999 -4.4800005 1.9221363
-1.0305032 -4.430512 1.9275174
0.99445963 -4.4308333 1.9441508
1.0066267 -4.4305882 1.9233874
1.2160141 -4.4299998 1.9253644
-1.194926 -4.3799996 1.9282941
-1.0402744 -4.3805122 1.9182928
0.995902 -4.3818178 1.9488609
1.0089253 -4.3771429 1.9376523
1.2165287 -4.3787498 1.9213653
-1.2002022 -4.3149996 1.9491849
-1.194259 -4.3183331 1.9404022
-1.0522512 -4.3179994 1.9117893
-1.0475348 -4.3419995 1.9163013
0.99572676 -4.3400002 1.9491266
1.0161432 -4.3339987 1.936806
1.2184843 -4.3359995 1.9180022
-1.2022338 -4.2737498 1.9427851
-1.1941252 -4.2799997 1.9401621
-1.0594345 -4.2799997 1.9095926
1.0328901 -4.2778249 1.9261978
-1.2151641 -4.23 1.9263319
-1.1937205 -4.23 1.9377521
-1.0689847 -4.2271419 1.9163352
1.0382932 -4.2399998 1.9270344
1.0518529 -4.2099996 1.9107536
-1.2034284 -4.1769228 1.9364676
-1.1944925 -4.1799994 1.9293414
-1.0770208 -4.1774993 1.9392031
1.0344731 -4.1695237 1.9382321
1.0568147 -4.1771994 1.9135083
1.1848384 -4.1778569 1.9061767
1.2189115 -4.1777778 1.9056655
-1.2058311 -4.129375 1.9331677
-1.1942031 -4.1300001 1.9255555
-1.0863727 -4.1279168 1.9366055
0.9936679 -4.1500001 1.9484043
1.0223358 -4.1450005 1.9434904
1.0626893 -4.1312823 1.9179394
1.177459 -4.1281819 1.9024162
1.2221903 -4.1299996 1.9018921
-1.2051042 -4.0783329 1.9293545
-1.193917 -4.0799999 1.9215295
-1.10019 -4.0599995 1.9158263
-1.0956134 -4.0796766 1.9324882
-0.32285345 -4.0899997 1.948193
1.0373137 -4.0719995 1.9412098
1.0703098 -4.0755992 1.9175196
1.1789563 -4.0999999 1.9001889
-1.2072926 -4.0299997 1.9258287
-1.1941458 -4.0324993 1.9226726
-1.1052486 -4.0282922 1.9268242
-1.0970881 -4.0449996 1.9482639
-0.27342534 -4.04 1.9495519
-0.24871129 -4.0099998 1.9169099
1.0430782 -4.04 1.9400079
1.0693982 -4.0297866 1.9273164
-1.207317 -3.9786367 1.9230549
-1.1940236 -3.98 1.9229931
-1.1142281 -3.9802384 1.9212347
-0.24047327 -3.98 1.9492099
1.0742105 -3.9809761 1.9300951
-1.2084403 -3.9300001 1.9192894
-1.1940236 -3.9299998 1.9190924
-1.1226529 -3.9318914 1.9205704
1.0836855 -3.9324138 1.9295484
1.1014096 -3.9266665 1.9140717
-1.2093555 -3.8788893 1.9153239
-1.1940236 -3.8800004 1.9151986
-1.1315588 -3.8810713 1.921561
-0.21575925 -3.8849998 1.9283559
1.0885582 -3.8768182 1.9313267
1.1056645 -3.878 1.9177004
-1.2104996 -3.8299994 1.9115359
-1.1940237 -3.8300004 1.9113019
-1.1391212 -3.8316662 1.9282398
1.0873034 -3.8318517 1.9317981
1.1103311 -3.8279161 1.9207106
-1.2104996 -3.79 1.9084269
-1.1642131 -3.77125 1.9164896
-1.1433624 -3.7778573 1.943688
1.091035 -3.7764704 1.9299594
1.1162467 -3.7767498 1.9199476
-1.1541169 -3.7300003 1.9175743
-1.1421083 -3.7278948 1.9425536
1.0847523 -3.7278788 1.928218
1.1172576 -3.7305887 1.9164475
-1.1539359 -3.6811423 1.9147315
-1.1374079 -3.6765704 1.9417388
1.0769684 -3.6784606 1.9249982
1.115021 -3.6795449 1.9136261
-1.1536472 -3.632 1.912621
-1.1267701 -3.6292062 1.9418434
-1.0924214 -3.6133335 1.9491
1.0446223 -3.6212499 1.9252163
1.0739594 -3.6299994 1.9209778
1.1128707 -3.6316669 1.9108933
-1.1531527 -3.5811107 1.9115455
-1.1252378 -3.5800004 1.9379315
-1.0814716 -3.5759997 1.9473965
1.0335956 -3.5748482 1.9228164
1.0739594 -3.5800004 1.9162679
1.1102593 -3.5813327 1.9083283
-1.1530125 -3.5299995 1.9086816
-1.1255207 -3.5301507 1.9331027
-1.0745727 -3.5299993 1.9441373
-1.0401102 -3.5193329 1.9485732
0.94837523 -3.51 1.9313569
0.98044854 -3.5231576 1.9270442
1.0245495 -3.5299995 1.9201559
1.0739595 -3.5299995 1.9115424
1.1080009 -3.5313041 1.9051117
-1.1526123 -3.4826665 1.9061097
-1.1255867 -3.4798496 1.9282562
-1.0745724 -3.4800007 1.9394267
-1.0288012 -3.4771433 1.9464376
-0.99837077 -3.46 1.9497349
0.89402401 -3.4620004 1.9359977
0.92970932 -3.4753339 1.9312664
0.97513884 -3.480001 1.9239262
1.0245496 -3.4800012 1.915411
1.0739594 -3.480001 1.9068547
1.1048409 -3.4853847 1.9018435
-1.151942 -3.4345446 1.9043605
-1.1254582 -3.4296963 1.9236937
-1.0745728 -3.4299998 1.9347265
-1.0251442 -3.4299996 1.942579
-0.98791492 -3.4242308 1.9479148
0.79190964 -3.4099998 1.9487826
0.82877123 -3.4138088 1.9427701
0.87886167 -3.427058 1.935427
0.92572886 -3.4299994 1.9276797
0.97513908 -3.4299991 1.9191889
1.0245495 -3.4299996 1.9107087
1.0692152 -3.43326 1.9032776
-1.1509005 -3.3860002 1.9029722
-1.1247141 -3.3807933 1.919452
-1.0745724 -3.3799999 1.9300047
-1.0251439 -3.3799999 1.9378561
-0.9768365 -3.3791225 1.945478
-0.94619673 -3.3666668 1.9491566
0.78319001 -3.3764706 1.947107
0.82484978 -3.3799996 1.940281
0.87631857 -3.3799999 1.9314252
0.92572898 -3.3799999 1.9229324
0.97513908 -3.3799996 1.9144617
1.0245494 -3.3800001 1.9059728
1.0571464 -3.3908331 1.9013867
-1.1226032 -3.3301787 1.9157927
-1.0745727 -3.3300006 1.9252938
-1.0251447 -3.3300004 1.9331509
-0.97571635 -3.3299997 1.9410094
-0.9344179 -3.3265786 1.9472691
0.77910948 -3.329565 1.9433377
0.82484943 -3.3300004 1.9355466
0.87631893 -3.3300004 1.9266992
0.92572886 -3.3300002 1.9182256
0.97513902 -3.3300006 1.9097282
1.0164226 -3.3334205 1.902987
-1.1212931 -3.2798114 1.9118387
-1.0745727 -3.2799997 1.9205767
-1.0251442 -3.2799995 1.9284321
-0.97571623 -3.2799995 1.9362994
-0.9266721 -3.2796607 1.9442893
-0.89657247 -3.2685714 1.9488367
0.72841322 -3.2728946 1.9466462
0.77409047 -3.27931 1.9394912
0.82484972 -3.2799995 1.9308277
0.87631863 -3.2799997 1.9219843
0.92572892 -3.2799995 1.9134833
0.97442883 -3.2806895 1.905196
1.0060205 -3.2942853 1.9010495
-1.1195754 -3.2308002 1.9080062
-1.0745724 -3.2300005 1.9158618
-1.0251441 -3.2300005 1.9237155
-0.97571635 -3.2300005 1.9315716
-0.92628807 -3.230001 1.9401218
-0.88656926 -3.227143 1.9473103
0.6941185 -3.2308333 1.9479586
0.72397065 -3.2300007 1.9430542
0.77338105 -3.230001 1.9349223
0.82484984 -3.230001 1.9261228
0.87631893 -3.2300007 1.917256
0.9257288 -3.2300007 1.9087605
0.96509486 -3.2339394 1.9023491
-1.116315 -3.1812189 1.904532
-1.0745727 -3.1799994 1.9111415
-1.0251441 -3.1799994 1.9190087
-0.97571605 -3.1799991 1.92697
-0.92628825 -3.1799994 1.9359586
-0.87621826 -3.1788518 1.9450004
-0.83855331 -3.165 1.9486792
0.69372261 -3.1776922 1.9427205
0.72397053 -3.1799994 1.9379898
0.77338099 -3.1799996 1.9299375
0.82484949 -3.1799994 1.9213756
0.87631893 -3.1799996 1.9125447
0.92351764 -3.1814809 1.9045432
0.95386529 -3.1966665 1.9007801
-1.1086687 -3.1372221 1.9017012
-1.0745727 -3.1299999 1.9064308
-1.0251445 -3.1299999 1.9142964
-0.97571641 -3.1299999 1.9225816
-0.92628843 -3.1299996 1.9318041
-0.87480068 -3.1299999 1.9398123
-0.82471067 -3.1287496 1.9458275
-0.78727168 -3.115 1.9487033
0.63117385 -3.1192594 1.9469557
0.67764831 -3.1225004 1.9397076
0.72397077 -3.1299996 1.93294
0.77338064 -3.1299996 1.9248757
0.82484996 -3.1299994 1.9164797
0.87631851 -3.1299994 1.90781
0.91290116 -3.1346154 1.9019519
-1.0690492 -3.0834084 1.9029237
-1.0251442 -3.0800002 1.909605
-0.97571582 -3.0800002 1.9184077
-0.92628831 -3.0799997 1.9270004
-0.87480062 -3.0800002 1.9335783
-0.82331312 -3.0800002 1.9398904
-0.77486044 -3.0789473 1.945695
-0.73823959 -3.066154 1.948581
0.5884558 -3.0682354 1.9486418
0.62515026 -3.0800004 1.9439912
0.67456025 -3.0800002 1.9359201
0.72397047 -3.0800002 1.9278843
0.77338099 -3.0800002 1.9198135
0.82484978 -3.0800002 1.9114311
0.87261283 -3.082 1.903813
0.90308255 -3.0999999 1.9004489
-1.0565518 -3.0437498 1.9011954
-1.02476 -3.0303385 1.9052107
-0.97571629 -3.0299997 1.9140745
-0.92628831 -3.0299997 1.9209899
-0.87480074 -3.0299995 1.9272985
-0.82331288 -3.0299995 1.9336083
-0.77388501 -3.0299995 1.939677
-0.72516686 -3.02931 1.9455597
-0.68141323 -3.0154996 1.9483345
-0.62560058 -3.01 1.9493647
0.29780746 -3.01 1.9498099
0.32457134 -3.01 1.94837
0.37398151 -3.0149996 1.9471092
0.42460281 -3.0194111 1.9456052
0.4757666 -3.0243995 1.9442396
0.52703947 -3.02931 1.9428558
0.57574004 -3.0299997 1.9403262
0.62515014 -3.0299997 1.9367881
0.67456031 -3.0299995 1.930702
0.72397059 -3.03 1.9228226
0.77338082 -3.0299997 1.914766
0.82484967 -3.0299995 1.9063729
0.8611353 -3.0393751 1.9014001
-1.0154352 -2.9828575 1.9028759
-0.97571635 -2.9800007 1.9086314
-0.92628825 -2.9800005 1.9147193
-0.87480044 -2.9800005 1.9210296
-0.82331276 -2.9800007 1.9273535
-0.77388465 -2.9800005 1.9331104
-0.72445673 -2.9800005 1.9369762
-0.67502856 -2.9800005 1.9388089
-0.62560046 -2.9800007 1.9402366
-0.57617241 -2.980001 1.9416591
-0.52674431 -2.9800005 1.9430852
-0.47572303 -2.9754722 1.943177
-0.42376909 -2.9750001 1.9445329
-0.37495333 -2.9705408 1.9445823
-0.324913 -2.9700003 1.9458637
-0.27754435 -2.9666667 1.9462113
-0.22605674 -2.9650002 1.9471679
-0.18086879 -2.9629412 1.9478284
-0.13749808 -2.9600003 1.9490374
0.14134178 -2.96 1.948992
0.17977196 -2.9658334 1.9469637
0.22751552 -2.9728575 1.9443724
0.27587104 -2.979311 1.941907
0.32457128 -2.9800005 1.9392207
0.37398154 -2.9800005 1.9364483
0.42339167 -2.9800005 1.9336668
0.47486082 -2.9800007 1.9307722
0.5263297 -2.9800005 1.9278728
0.57573986 -2.9800007 1.925092
0.62515026 -2.9800007 1.9223101
0.67456031 -2.980001 1.9195352
0.72397041 -2.9800005 1.9158119
0.77338094 -2.9800007 1.9095899
0.81681091 -2.9840479 1.9030393
-1.0074326 -2.948 1.9007725
-0.97236949 -2.9337494 1.9032594
-0.92628825 -2.9299994 1.9084401
-0.87480044 -2.9299996 1.9145464
-0.823313 -2.9299994 1.9188205
-0.77388471 -2.9299994 1.9207393
-0.72445685 -2.9299994 1.9221644
-0.67502892 -2.9299996 1.923592
-0.62560058 -2.9299996 1.9250126
-0.57617253 -2.9299998 1.9264414
-0.52674425 -2.9299996 1.9278649
-0.47525671 -2.9299994 1.9293494
-0.42376935 -2.9299996 1.9308355
-0.37434101 -2.9299998 1.9322586
-0.32491317 -2.9299996 1.9336849
-0.27548489 -2.9299991 1.9351097
-0.22605672 -2.9299994 1.9365214
-0.1766286 -2.9299991 1.9379258
-0.12514107 -2.9299994 1.9399619
-0.074920826 -2.9269223 1.9426899
-0.023660174 -2.9209752 1.9446795
0.021784987 -2.9206524 1.9443117
0.073402703 -2.925 1.9429115
0.12487171 -2.9299996 1.9410666
0.17634071 -2.9299996 1.9360231
0.22575091 -2.9299994 1.9310304
0.27516112 -2.9299996 1.9268173
0.32457122 -2.9299996 1.924005
0.37398157 -2.9299994 1.9212199
0.42339182 -2.9299996 1.9184383
0.4748607 -2.9299994 1.9155464
0.52632976 -2.9299998 1.912649
0.57573992 -2.9299994 1.909866
0.62444025 -2.9306891 1.9073362
0.6740784 -2.9353187 1.9059515
0.72397071 -2.9399998 1.9045743
0.77247483 -2.9444001 1.903154
0.80494839 -2.9466667 1.9009281
-0.95800459 -2.8979998 1.9005893
-0.92507666 -2.8905883 1.9031339
-0.87332934 -2.8885713 1.9052671
-0.82331324 -2.8850002 1.9056191
-0.77342248 -2.88449 1.9068999
-0.72445673 -2.8799999 1.9069479
-0.67502886 -2.8799999 1.9083705
-0.62560046 -2.8799999 1.909796
-0.57617247 -2.8800001 1.9112211
-0.52674431 -2.8800004 1.9126461
-0.4752568 -2.8799994 1.9141283
-0.42376918 -2.8799999 1.9156151
-0.37434095 -2.8799999 1.9170409
-0.32491297 -2.8799999 1.9184674
-0.27548489 -2.8799999 1.9198914
-0.2260568 -2.8800001 1.9213054
-0.17662863 -2.8800001 1.9227117
-0.12514108 -2.8799996 1.9241917
-0.073653437 -2.8800004 1.9266776
-0.020945465 -2.8793237 1.9304919
0.02014797 -2.8796337 1.9302043
0.073402718 -2.8800001 1.927328
0.12487171 -2.8799999 1.9243896
0.17634064 -2.8799999 1.9202235
0.22575091 -2.8799996 1.9152645
0.27516112 -2.8799999 1.9115523
0.32457131 -2.8800004 1.9087709
0.37262192 -2.8826408 1.9068727
0.42171597 -2.8867443 1.9053609
0.47243857 -2.8914704 1.9039452
0.52303571 -2.8960001 1.9024799
0.56956363 -2.8999999 1.9010915
-0.62560064 -2.8500001 1.9006625
-0.57617241 -2.8500001 1.9020895
-0.52487206 -2.8454542 1.902184
-0.47525674 -2.8449996 1.9034766
-0.42208415 -2.8409085 1.9037647
-0.37434113 -2.8399994 1.9048642
-0.32341525 -2.8363631 1.9052266
-0.27548489 -2.8349998 1.9061943
-0.22468376 -2.832222 1.9068042
-0.17662866 -2.8300004 1.9074973
-0.12514107 -2.8299999 1.908958
-0.073653422 -2.8299997 1.9104785
-0.020363819 -2.8300006 1.915934
0.020428773 -2.8298914 1.9150424
0.07340274 -2.8300002 1.9100138
0.12340616 -2.8320341 1.907901
0.17510544 -2.8359995 1.9061059
0.22326617 -2.8424129 1.9037247
0.27145532 -2.8479998 1.9020238
0.30810124 -2.8499999 1.9005795
-0.10866503 -2.8 1.9003166
-0.073653445 -2.7999995 1.9012938
-0.027543223 -2.7679999 1.9300201
0.022521973 -2.7764285 1.9226105
0.056932658 -2.8 1.9005457
-0.018516131 -2.7310529 1.9235952
0.011639972 -2.73 1.9236175
-0.020372622 -2.6688888 1.925023
0.013882076 -2.6694117 1.9246892
1.1418986 -5.8099999 1.9660436
1.1624861 -5.8100004 1.9745272
-0.064357847 -5.7786484 1.9772186
-0.026437398 -5.7814798 1.9748255
0.029452696 -5.7817388 1.9739302
0.07340271 -5.7799993 1.9745332
0.12487172 -5.7799988 1.9738699
0.17634064 -5.7799988 1.9732075
0.22575091 -5.7799988 1.9725703
0.27516106 -5.7799993 1.9719329
0.32457122 -5.7799993 1.971295
0.37398142 -5.7799993 1.970657
0.4233917 -5.7799988 1.9700179
0.47486064 -5.7799997 1.9693536
0.52632982 -5.7799988 1.9686873
0.57573998 -5.7799988 1.9680499
0.62515014 -5.7799988 1.9674107
0.67456037 -5.7799997 1.9667709
0.72397035 -5.7799997 1.9661323
0.77338094 -5.7799988 1.9654926
0.82484955 -5.7799988 1.9648265
0.87631881 -5.7799988 1.964157
0.9245525 -5.7785716 1.9644916
0.97513914 -5.7749996 1.9662328
1.0245496 -5.7749991 1.9655892
1.0739592 -5.7749991 1.9649471
1.1228004 -5.7774463 1.9692149
1.1611859 -5.79 1.9946893
-0.064500093 -5.7322226 1.9988933
-0.032463357 -5.7300005 1.9985788
0.035880186 -5.7306461 1.9975795
0.07340274 -5.73 1.9971598
0.12487171 -5.73 1.9964769
0.17634068 -5.7300014 1.9957875
0.22575088 -5.7300014 1.9951247
0.27516106 -5.730001 1.9944655
0.32457134 -5.730001 1.9938055
0.37398162 -5.7300005 1.9931432
0.42339173 -5.7300005 1.9924845
0.4748607 -5.7300005 1.9917927
0.52632964 -5.7300005 1.9911022
0.57573998 -5.7300005 1.9904397
0.62515002 -5.730001 1.9897764
0.67456037 -5.73 1.9891144
0.72397035 -5.730001 1.9884527
0.77338058 -5.7300005 1.98779
0.82485002 -5.73 1.9870974
0.87631857 -5.7300005 1.9864082
0.92572874 -5.73 1.9857413
0.9751392 -5.730001 1.9850813
1.0245496 -5.7300005 1.9844176
1.0739595 -5.7300005 1.9837531
1.1192517 -5.7300005 1.9844143
-0.064104833 -5.6704545 1.9919059
-0.030087003 -5.6776915 1.9933755
0.034910172 -5.6784844 1.9929022
0.073402725 -5.6800008 1.9931537
0.12487171 -5.6800003 1.9924356
0.17634065 -5.6800013 1.9917202
0.22575092 -5.6800013 1.9910343
0.27516112 -5.6800008 1.9903451
0.32457128 -5.6800008 1.989659
0.37398148 -5.6800003 1.9889719
0.42339191 -5.6800008 1.9882867
0.47486085 -5.6800008 1.9875699
0.5263297 -5.6800003 1.9868559
0.5757398 -5.6800008 1.9861695
0.62515026 -5.6800003 1.9854814
0.67456031 -5.6800008 1.9847962
0.72397041 -5.6800008 1.9841098
0.77338099 -5.6800003 1.9834238
0.82484961 -5.6800013 1.9827074
0.87631881 -5.6800003 1.9819912
0.92572862 -5.6800008 1.981303
0.9751392 -5.6800008 1.9806174
1.0245496 -5.6800008 1.9799273
1.0739595 -5.6800013 1.979239
1.1196963 -5.6796079 1.9802804
-0.063355923 -5.6400003 1.9685564
-0.02487261 -5.6397138 1.9677893
0.027152631 -5.6390324 1.9665236
0.073402725 -5.6399999 1.9666021
0.12487168 -5.6399999 1.96587
0.17634068 -5.6399999 1.9651358
0.22575086 -5.6399999 1.964429
0.27516109 -5.6399999 1.9637241
0.32457125 -5.6399994 1.9630197
0.3739816 -5.6399999 1.9623135
0.42339176 -5.6400003 1.9616081
0.47486076 -5.6399999 1.9608741
0.5263297 -5.6399994 1.9601372
0.5757398 -5.6399999 1.9594309
0.62515008 -5.6399999 1.9587271
0.67456031 -5.6399999 1.9580203
0.72397065 -5.645 1.9611505
0.7733807 -5.6450005 1.9604477
0.82484972 -5.645 1.959713
0.87631869 -5.645 1.9589796
0.92572898 -5.645 1.9582777
0.97513908 -5.645 1.9575758
1.0245494 -5.645 1.9568748
1.0739596 -5.6450005 1.956174
1.1278193 -5.6396766 1.9647082
1.1608922 -5.6303225 1.9827702
1.0363731 -5.4999995 1.9857433
1.0746996 -5.4949994 1.9817965
1.0353656 -5.4449997 1.979823
-0.90569311 -5.0649996 1.979386
-0.87232906 -5.0728879 1.9902762
-0.82331294 -5.0749998 1.9895548
-0.77388471 -5.0749993 1.9890132
-0.72445679 -5.0749989 1.9885659
-0.67502856 -5.0749984 1.9881471
-0.62560046 -5.0749984 1.9877261
-0.57617253 -5.0749993 1.9873067
-0.52674448 -5.0749984 1.9868875
-0.47525677 -5.0749998 1.9864508
-0.42376909 -5.0749989 1.9860139
-0.37434101 -5.0749998 1.9855934
-0.32491294 -5.0749993 1.9851751
-0.27548489 -5.0749989 1.9847559
-0.22605677 -5.0749984 1.9843415
-0.17662866 -5.0749989 1.9840183
-0.12514105 -5.0749989 1.9837184
-0.07365343 -5.0749993 1.9834172
-0.028714003 -5.0758963 1.9827731
0.031666066 -5.0754542 1.9822496
0.073402725 -5.0749989 1.9818581
0.12487173 -5.0749998 1.9810894
0.17634068 -5.0749998 1.9802269
0.22575088 -5.0749993 1.9793633
0.27516112 -5.0749993 1.9785002
0.32457137 -5.0749993 1.9776326
0.37398151 -5.0749989 1.9767708
0.42339182 -5.0749984 1.9759043
0.47486085 -5.0749993 1.9750025
0.5263297 -5.0749989 1.9741043
0.57573998 -5.0749989 1.9732376
0.6251502 -5.0749989 1.9723707
0.67456031 -5.0749993 1.9715085
0.72397071 -5.0749993 1.9705553
0.77338094 -5.0749989 1.9695615
0.82484972 -5.0749989 1.9685271
0.86922753 -5.0696287 1.9655435
-0.90912563 -5.0283332 1.9817045
-0.8748008 -5.0299988 1.9969497
-0.82331282 -5.0299993 1.9981408
-0.77388465 -5.0299988 1.9975637
-0.72445679 -5.0299997 1.9969745
-0.67502868 -5.0299988 1.9963871
-0.62560052 -5.0299993 1.9957983
-0.57617253 -5.0299993 1.9952102
-0.52674431 -5.0299993 1.9946213
-0.47525665 -5.0299997 1.9940091
-0.42376903 -5.0299988 1.993395
-0.37434107 -5.0299997 1.9928075
-0.324913 -5.0299988 1.9922189
-0.27548486 -5.0299997 1.99163
-0.22605675 -5.0299993 1.9910412
-0.17662863 -5.0299993 1.9904526
-0.12514104 -5.0299993 1.9898405
-0.073653445 -5.0299993 1.9892268
-0.030403858 -5.0299997 1.9888499
0.032986037 -5.0307889 1.9882056
0.07340274 -5.0299993 1.9876426
0.12487172 -5.0299988 1.9868655
0.17634067 -5.0299993 1.9860879
0.22575088 -5.0299993 1.9853423
0.27516112 -5.0299993 1.9845957
0.32457131 -5.0299993 1.9838487
0.3739816 -5.0299997 1.9831022
0.42339188 -5.0299993 1.982356
0.47486067 -5.0299993 1.981577
0.52632976 -5.0299993 1.9807992
0.5757398 -5.0299988 1.9800515
0.62515026 -5.0299983 1.9793032
0.67456025 -5.0299988 1.9785587
0.72397041 -5.0299988 1.977811
0.7733807 -5.0299993 1.9770509
0.82484961 -5.0299997 1.9759885
0.87315124 -5.0290375 1.9682097
-0.9140684 -4.9786673 1.9847369
-0.8748005 -4.9800005 1.9975361
-0.82849717 -4.989655 1.9996732
-0.77141351 -4.9919996 1.9993923
-0.72295904 -4.9863639 1.9990906
-0.67431849 -4.9806895 1.9987887
-0.62560058 -4.980001 1.9982435
-0.57617247 -4.980001 1.9976541
-0.52674443 -4.980001 1.9970672
-0.47525683 -4.9800005 1.9964551
-0.42376927 -4.980001 1.9958396
-0.37434107 -4.980001 1.9952524
-0.32491305 -4.9800005 1.9946629
-0.27548486 -4.980001 1.9940758
-0.22605678 -4.9800005 1.9934863
-0.17662872 -4.9800005 1.9928977
-0.12514107 -4.9800005 1.9922835
-0.073653437 -4.980001 1.9917144
-0.031170186 -4.9806986 1.9916606
0.034286313 -4.9800005 1.9911478
0.07340271 -4.9800005 1.990558
0.12487171 -4.98 1.9897795
0.17634068 -4.98 1.9890026
0.22575088 -4.980001 1.9882568
0.27516106 -4.9800014 1.9875081
0.32457128 -4.9800005 1.9867629
0.37398157 -4.980001 1.9860151
0.42339179 -4.9800005 1.9852684
0.47486085 -4.98 1.9844915
0.52632964 -4.9800005 1.9837129
0.57573992 -4.9800005 1.9829665
0.62515014 -4.98 1.9822177
0.67417651 -4.9803395 1.9814574
0.72338235 -4.987143 1.980655
0.77435595 -4.9810534 1.9796253
0.82484996 -4.98 1.9774349
0.87631875 -4.9800005 1.9688247
0.90308255 -4.9699998 1.9514074
-1.1919641 -4.915 1.9688964
-0.91860253 -4.9287796 1.9862462
-0.87847847 -4.9303575 1.99711
-0.62265837 -4.9485712 1.9997457
-0.5738188 -4.9428568 1.9994415
-0.52497911 -4.9371419 1.9991392
-0.47404137 -4.9313121 1.9988202
-0.4237693 -4.9299998 1.9982851
-0.37434113 -4.9300003 1.9976971
-0.32491302 -4.9300003 1.9971085
-0.27548489 -4.9299998 1.9965194
-0.22605677 -4.9300003 1.9959309
-0.17662862 -4.9300003 1.9953425
-0.12514105 -4.9300003 1.9947287
-0.073653437 -4.9299998 1.9944234
-0.032463353 -4.9299994 1.9946064
0.034286313 -4.9299998 1.9940586
0.073402725 -4.9299998 1.9934705
0.12487169 -4.9300003 1.9926934
0.17634073 -4.9300003 1.9919164
0.22575091 -4.9300003 1.9911697
0.27516115 -4.9299998 1.9904238
0.32457131 -4.9300003 1.9896758
0.37398154 -4.9300003 1.9889301
0.42339179 -4.9300003 1.9881815
0.47486082 -4.9300003 1.9874064
0.5263297 -4.9300003 1.9866275
0.5757398 -4.9299998 1.9858795
0.62515038 -4.9300003 1.9851097
0.67014873 -4.9293871 1.9843444
0.78187972 -4.9292307 1.9813184
0.82484955 -4.9300003 1.9779602
0.87631869 -4.9299998 1.9703461
0.90617067 -4.9275002 1.9559542
-1.1919641 -4.8800001 1.9689825
-0.9231196 -4.8790379 1.9866003
-0.87764144 -4.8794823 1.9969801
-0.41999337 -4.8991675 1.9997492
-0.37228152 -4.893333 1.9994642
-0.3231549 -4.8875604 1.9991624
-0.27417424 -4.8818183 1.9988585
-0.22605674 -4.8799996 1.9983758
-0.17662868 -4.8799992 1.9977863
-0.12514107 -4.8799996 1.9972473
-0.073653445 -4.8799992 1.9973166
-0.032463357 -4.8799996 1.9975188
0.03544436 -4.8809381 1.9968995
0.073402725 -4.8799992 1.9963853
0.12487171 -4.8799987 1.9956067
0.17634071 -4.8799992 1.9948289
0.22575092 -4.8799992 1.9940829
0.27238622 -4.8849998 1.9930871
0.32298771 -4.8938465 1.9918048
0.37398151 -4.895 1.9909698
0.42662707 -4.8864284 1.9906728
0.4748607 -4.8799987 1.9903194
0.5263297 -4.8799996 1.9895356
0.57573986 -4.8799992 1.9887055
0.62515008 -4.8799992 1.9877652
0.67456025 -4.8799996 1.9868068
0.72333705 -4.8769231 1.9857572
0.77338064 -4.8799992 1.9830728
0.8248499 -4.8799992 1.9779457
0.87631863 -4.8799992 1.9704159
0.91019458 -4.8786368 1.9597548
-1.1919641 -4.8299999 1.9691063
-0.95409143 -4.8199997 1.9700587
-0.92628801 -4.8299994 1.9874661
-0.87686026 -4.8300004 1.9968652
-0.21987823 -4.8499999 1.9997648
-0.17407484 -4.8439989 1.9995159
-0.127564 -4.8414707 1.9993221
-0.073653445 -4.8449988 1.9993567
-0.032463357 -4.8449993 1.9995574
0.036950581 -4.8405876 1.9992348
0.074900001 -4.8363643 1.9989064
0.12559065 -4.8306341 1.9984725
0.17634065 -4.8299994 1.9977434
0.22435383 -4.8312497 1.9969441
0.25388727 -4.8466663 1.9955916
0.44603813 -4.8499999 1.9925119
0.47709405 -4.8313556 1.9930836
0.52632976 -4.8300004 1.9922633
0.57573998 -4.8300004 1.9913027
0.62515008 -4.8299999 1.9903417
0.67456031 -4.8299999 1.9892159
0.72397041 -4.8299999 1.9869677
0.7733807 -4.8299999 1.984129
0.82484961 -4.8299994 1.9776224
0.8763184 -4.8299994 1.9701018
0.91397399 -4.8283868 1.9615656
-1.1919641 -4.7800002 1.9692348
-0.95795316 -4.7774992 1.9730583
-0.92628819 -4.7799997 1.9895161
-0.87642121 -4.7796726 1.9966601
0.14751804 -4.7999997 1.9999344
0.1805793 -4.7970591 1.9995992
0.22681576 -4.7910347 1.9992528
0.25251472 -4.7799997 1.9995199
0.44466558 -4.7633328 1.9972873
0.47598967 -4.7791929 1.995859
0.5263297 -4.7799993 1.9948399
0.57573974 -4.7799993 1.9938818
0.62515026 -4.7799993 1.992859
0.67456031 -4.7799988 1.9908645
0.72397059 -4.7799997 1.9883038
0.7733807 -4.7799993 1.9845941
0.82484978 -4.7799993 1.9773024
0.87631887 -4.7799993 1.9697719
0.91759694 -4.7789993 1.9620012
-1.1919641 -4.7299995 1.9693807
-0.96193343 -4.7280765 1.9764132
-0.92628849 -4.730001 1.9898158
-0.87480056 -4.7300005 1.9966062
0.3966279 -4.73 1.9999439
0.42932582 -4.7326469 1.9991655
0.47486076 -4.7300005 1.9984145
0.52632964 -4.730001 1.9974172
0.5757398 -4.7300005 1.9964447
0.62515008 -4.73 1.9947442
0.67456031 -4.730001 1.9921995
0.72397041 -4.730001 1.9896156
0.7733807 -4.730001 1.984506
0.82484996 -4.730001 1.9769784
0.87631869 -4.730001 1.9694368
0.9216938 -4.7292008 1.9617046
-1.1919641 -4.6799998 1.9695282
-0.96722835 -4.6787181 1.9772739
-0.92628837 -4.6799998 1.9895543
-0.87480074 -4.6800003 1.99634
0.48875731 -4.69875 1.9997504
0.52880013 -4.6919999 1.9993269
0.57685965 -4.6808763 1.9984897
0.62515026 -4.6799998 1.9961007
0.67456025 -4.6799998 1.9935318
0.72397059 -4.6799998 1.9905643
0.77338052 -4.6799994 1.9842019
0.82484949 -4.6800003 1.976632
0.8763184 -4.6799998 1.9690894
0.925345 -4.6796608 1.9612896
0.95249277 -4.6599998 1.9519629
-1.1919641 -4.6300001 1.9696757
-0.9745149 -4.6355877 1.9749547
-0.92628807 -4.6399999 1.9893565
-0.87480026 -4.6299992 1.9960746
-0.84596753 -4.625 1.9998863
0.58745342 -4.6341381 1.9992838
0.62515014 -4.6299996 1.9974303
0.67456031 -4.6300001 1.9948605
0.72397041 -4.6299996 1.99093
0.77338105 -4.6299992 1.9838693
0.82484996 -4.6299996 1.9762845
0.87631905 -4.6299992 1.9687546
0.9257291 -4.6299992 1.9614924
0.95496333 -4.6269999 1.9542897
-1.1919641 -4.5799999 1.9692978
-1.0029083 -4.5685711 1.956537
-0.99813753 -4.5899992 1.9581271
-0.87480056 -4.5999994 1.9959151
-0.84596753 -4.5999999 1.999754
0.59701371 -4.5966663 1.9997653
0.62654722 -4.5812502 1.9986554
0.67456043 -4.5799999 1.9961313
0.72397053 -4.5799999 1.9907489
0.77338064 -4.5799999 1.9835249
0.82484978 -4.5800004 1.9759543
0.87631863 -4.5800009 1.9684256
0.92572898 -4.5800004 1.9611669
0.95798278 -4.5783329 1.9555978
-1.1919641 -4.5299997 1.965872
-1.0092307 -4.5323071 1.9569285
-0.99784964 -4.5449991 1.969259
0.63686371 -4.5341377 1.9993685
0.67456013 -4.5299997 1.9969746
0.72397053 -4.5299988 1.9904064
0.77338105 -4.5299993 1.9831804
0.82484955 -4.5299997 1.9756191
0.87631851 -4.5299993 1.9680784
0.92572898 -4.5299997 1.9608628
0.96205133 -4.5289288 1.9551734
-1.1935087 -4.4762497 1.9616899
-1.0177939 -4.4919996 1.9535854
0.646424 -4.4966664 1.9998747
0.67575228 -4.4805274 1.9970751
0.72397053 -4.480001 1.9900645
0.77338064 -4.4800014 1.982836
0.82484972 -4.4800005 1.9752725
0.87631875 -4.4800014 1.9677314
0.92572886 -4.480001 1.9605296
0.96614558 -4.4792109 1.9544266
-1.1940236 -4.4300003 1.9580936
0.67661923 -4.4299994 1.9966856
0.72397059 -4.4299998 1.9897393
0.7733807 -4.4299998 1.9824919
0.82484961 -4.4300003 1.9749265
0.87631887 -4.4299994 1.9674087
0.92572892 -4.4299998 1.9601996
0.97107363 -4.4291997 1.9534171
-1.2002022 -4.3699999 1.9534539
-1.1940236 -4.3800001 1.9541934
0.67534113 -4.3794823 1.9965351
0.72397047 -4.3799987 1.9894081
0.77338064 -4.3799992 1.9821469
0.82484972 -4.3799996 1.9746016
0.87631869 -4.3799992 1.9670674
0.92572886 -4.3799996 1.9598501
0.97102147 -4.3800001 1.9531418
-1.2002022 -4.3399997 1.9511248
-1.1940236 -4.3400002 1.9510781
-1.0309354 -4.3199992 1.9716339
0.67456031 -4.3499994 1.9964705
0.72397059 -4.3499994 1.9892031
0.77512276 -4.3492303 1.9816601
0.82727194 -4.3414702 1.9739757
0.87631869 -4.3399997 1.9667895
0.92572892 -4.3400002 1.9595704
0.97102171 -4.3399992 1.9528954
-1.0549741 -4.2699995 1.9561977
-1.0437411 -4.2785707 1.9662056
-0.87274116 -4.2699986 1.9944929
-0.83978891 -4.27 1.9987955
-1.0586154 -4.2299995 1.9585724
-1.0435791 -4.2499995 1.969259
-0.87274128 -4.230001 1.9943256
-0.83844584 -4.2286959 1.9987611
-1.0652562 -4.1799994 1.9595439
-0.90569305 -4.1750002 1.9897535
-0.87480062 -4.1799998 1.9937814
-0.83772951 -4.1799998 1.9986023
-1.0746367 -4.1299996 1.9585724
-0.90569305 -4.1300001 1.9895136
-0.87480038 -4.1299992 1.9935153
-0.83725423 -4.129231 1.9984379
0.98102134 -4.1414289 1.9623505
-1.0876302 -4.0799994 1.952873
-0.90569317 -4.0799999 1.9892467
-0.87480044 -4.0800004 1.9932495
-0.83464026 -4.0787492 1.9984996
-1.101346 -4.0099998 1.9522619
-1.0728875 -4.0249991 1.9654499
-1.0251445 -4.0249991 1.9733014
-0.97571617 -4.0249991 1.979714
-0.92546433 -4.0259991 1.9863219
-0.87480068 -4.0299993 1.992772
-0.83336079 -4.0336366 1.9970347
0.86396611 -4.0199995 1.9772758
-1.1036998 -3.9771426 1.9530706
-1.0745727 -3.9800007 1.9660493
-1.0251441 -3.9800007 1.9730576
-0.97571605 -3.9800007 1.979472
-0.92628807 -3.9800007 1.9857793
-0.8748005 -3.9800012 1.9910548
-0.84184843 -3.9866664 1.9952565
0.91131759 -3.9649999 1.9550129
1.0319571 -3.9599996 1.9975836
-1.1068381 -3.9273331 1.9578522
-1.0745724 -3.9299991 1.9662709
-1.0251442 -3.9299994 1.9727875
-0.97571635 -3.9299994 1.9789555
-0.92628831 -3.9299994 1.9844393
-0.87742823 -3.9313784 1.9913584
-0.22811624 -3.9349999 1.9890928
0.91131759 -3.9399998 1.9776057
1.0421256 -3.9245453 1.9925605
-1.1099133 -3.8788004 1.9594606
-1.0745729 -3.8799999 1.965999
-1.0251442 -3.8799994 1.9722623
-0.97571635 -3.8799996 1.9782268
-0.92628819 -3.8799996 1.9854323
-0.88478917 -3.8817496 1.9917815
1.0464257 -3.875 1.9916636
1.0516608 -3.891428 1.9857433
-1.1145039 -3.8286104 1.9593222
-1.0745723 -3.8300004 1.965611
-1.0251442 -3.8300006 1.9721906
-0.97571599 -3.8300009 1.9793782
-0.92628825 -3.8300004 1.9865448
-0.88715762 -3.8299997 1.9928824
1.035988 -3.8317647 1.9899223
-1.1176233 -3.7788634 1.9589782
-1.0745723 -3.7799995 1.965757
-1.0251443 -3.7799995 1.9729134
-0.97571629 -3.7799993 1.9799066
-0.92628849 -3.7799995 1.9869617
-0.8871575 -3.78 1.9932803
1.0219752 -3.7779994 1.9879138
-1.1182691 -3.7308698 1.9557796
-1.0745727 -3.7300007 1.9629048
-1.0251443 -3.7300007 1.9702811
-0.97571629 -3.7300007 1.9774556
-0.92628825 -3.7300007 1.9846287
-0.88223302 -3.728044 1.9912546
0.91131759 -3.7249999 1.9950776
1.0107059 -3.7329998 1.9847567
-1.1133168 -3.6834369 1.9524648
-1.0745724 -3.6799996 1.9582824
-1.0251442 -3.6799991 1.9661366
-0.97571588 -3.6799994 1.9737312
-0.92628825 -3.6799994 1.9809726
-0.87644839 -3.6809993 1.9885749
-0.84596753 -3.6749997 1.9971889
0.91131765 -3.6799998 1.9948744
1.0024011 -3.6966665 1.9791651
-1.1027189 -3.6466665 1.9505882
-1.0725892 -3.6318512 1.9540528
-1.0251441 -3.6300001 1.9614315
-0.97571617 -3.6299996 1.9692957
-0.92628849 -3.6299996 1.9770713
-0.8936612 -3.6294739 1.9819485
0.91131759 -3.6499999 1.9947389
-1.0607738 -3.5879993 1.9517815
-1.0251445 -3.5800004 1.9567298
-0.97571629 -3.5800004 1.9645745
-0.92628801 -3.5800006 1.9724393
-0.87629193 -3.5775859 1.9801683
-0.82882714 -3.5703225 1.9879607
-1.0201559 -3.5335555 1.953133
-0.97571605 -3.5299995 1.9598691
-0.92628831 -3.5299995 1.9677306
-0.87480074 -3.5299995 1.9759192
-0.82331294 -3.5299997 1.984422
-0.78258783 -3.5229027 1.9925297
-1.0088556 -3.492727 1.9510814
-0.97533238 -3.4803398 1.9552357
-0.92628831 -3.4800007 1.9630171
-0.87480038 -3.480001 1.9712132
-0.82331294 -3.4800005 1.9801812
-0.77388489 -3.4800003 1.989458
-0.73493338 -3.4699998 1.9960115
-0.96638805 -3.4344115 1.9523495
-0.92628819 -3.4299996 1.958305
-0.87480074 -3.4299994 1.9666221
-0.82331312 -3.4299994 1.9760205
-0.77388489 -3.4299994 1.9853243
-0.72484052 -3.4296608 1.9944234
-0.68826836 -3.4164281 1.9986598
0.78161579 -3.4099998 1.9504004
-0.95443469 -3.3966665 1.9506416
-0.92407596 -3.3814814 1.9540728
-0.87480038 -3.3799999 1.9622598
-0.823313 -3.3799999 1.9718783
-0.77388471 -3.3799996 1.9811673
-0.72445667 -3.3799996 1.9894873
-0.67573869 -3.3793101 1.9955257
-0.63884026 -3.3664286 1.998436
0.47951531 -3.3754346 1.9968699
0.69514787 -3.3749998 1.9618607
0.70607507 -3.3738458 1.9601448
0.7633037 -3.3900001 1.95178
-0.91224599 -3.3359087 1.9517472
-0.87480056 -3.3300004 1.9580582
-0.823313 -3.3300002 1.9677444
-0.77388477 -3.3300004 1.9766904
-0.72445661 -3.3300004 1.9833775
-0.67502874 -3.3300004 1.9894233
-0.62631077 -3.3293107 1.9953268
-0.58768147 -3.3170593 1.9985206
0.43780306 -3.3221054 1.9985528
0.47486067 -3.3300004 1.9935356
0.69514787 -3.3299999 1.9577223
0.71019274 -3.3280766 1.9551076
-0.90363359 -3.3 1.9501719
-0.87217307 -3.281379 1.9545405
-0.82331318 -3.2799997 1.963551
-0.77388471 -3.2799995 1.9710307
-0.72445667 -3.279999 1.9770886
-0.67502856 -3.2799993 1.9831579
-0.6256004 -3.2799997 1.9892098
-0.57688272 -3.2793097 1.9951067
-0.53887248 -3.268333 1.9983932
0.3966279 -3.26 1.9994129
0.42583904 -3.2781131 1.9964098
0.47486073 -3.2799997 1.9887218
0.52161449 -3.2706449 1.9801261
0.6941185 -3.2775002 1.9526806
0.7087872 -3.2893748 1.9515508
-0.86107039 -3.2333336 1.9526629
-0.82331282 -3.2300005 1.9585239
-0.77388489 -3.2300007 1.9647621
-0.72445673 -3.2300007 1.9708238
-0.6750285 -3.230001 1.9768928
-0.6256007 -3.2300005 1.9829367
-0.57617253 -3.2300005 1.989004
-0.52712828 -3.2296617 1.9949894
-0.48823166 -3.2185001 1.9983408
0.38454977 -3.2246668 1.9978119
0.42339173 -3.230001 1.9920471
0.47486076 -3.230001 1.9836764
0.52221209 -3.2300005 1.9759258
0.68897164 -3.25 1.9503429
-0.85317576 -3.1974998 1.9509176
-0.820265 -3.1829994 1.9531902
-0.77388477 -3.1799996 1.9584912
-0.72445673 -3.1799994 1.9645509
-0.67502868 -3.1799996 1.9706241
-0.62560052 -3.1799994 1.9766495
-0.57617259 -3.1799994 1.982742
-0.52674425 -3.1799996 1.9888024
-0.47597593 -3.1793644 1.9949473
-0.43589732 -3.1683331 1.9984746
0.28202364 -3.1616666 1.9984409
0.32705599 -3.1675858 1.9963062
0.37469152 -3.1793096 1.994367
0.42339176 -3.1799996 1.9869759
0.47486079 -3.1799996 1.9785893
0.52221221 -3.1800001 1.9708935
-0.80374765 -3.1474998 1.9507203
-0.77053809 -3.13375 1.953114
-0.72445691 -3.1299999 1.9582789
-0.67502886 -3.1299996 1.964337
-0.62560046 -3.1299999 1.9703956
-0.57617253 -3.1299999 1.9764614
-0.52674425 -3.1299996 1.9825284
-0.47525683 -3.1299996 1.9882078
-0.42376927 -3.1299999 1.9915748
-0.37434101 -3.1299994 1.99314
-0.32537526 -3.1255105 1.9931833
-0.27725014 -3.1228573 1.9942026
-0.22841048 -3.1171432 1.9959848
-0.17957078 -3.1114287 1.9979984
-0.14985508 -3.1099999 1.9999509
0.13283224 -3.1126668 1.9980062
0.17902333 -3.1193938 1.9954851
0.22711049 -3.1273584 1.9931424
0.27516112 -3.1299999 1.9891279
0.32457125 -3.1299999 1.9849381
0.37398151 -3.1299996 1.9821259
0.42339182 -3.1299999 1.978945
0.47486091 -3.1299994 1.9731859
0.52404213 -3.1288888 1.9654219
0.57821041 -3.1180003 1.9554875
0.60707879 -3.1222219 1.9512439
-0.75534934 -3.0999997 1.950675
-0.72064453 -3.0838292 1.952956
-0.67502868 -3.0800004 1.9580696
-0.62560052 -3.0800004 1.9641372
-0.57617253 -3.0799997 1.9697483
-0.52674443 -3.0800002 1.9732692
-0.47525665 -3.0800004 1.9750097
-0.42376912 -3.0800004 1.9764947
-0.37434107 -3.0800002 1.9779173
-0.32491291 -3.0800004 1.9793453
-0.27548486 -3.0799997 1.9807788
-0.22605678 -3.0800002 1.9833755
-0.17662865 -3.0800002 1.9873542
-0.12586026 -3.079365 1.991272
-0.074889138 -3.0739996 1.9935796
-0.033090163 -3.0695655 1.9954369
0.035783589 -3.0713632 1.9947652
0.074775234 -3.0777774 1.9928467
0.12487171 -3.0800002 1.9885111
0.17634068 -3.0800004 1.9833238
0.22575094 -3.0800002 1.9783475
0.27516112 -3.0800002 1.973375
0.32457131 -3.0800004 1.9696845
0.37398154 -3.0800004 1.9669012
0.42339191 -3.0800002 1.9641229
0.47486076 -3.0800002 1.9612271
0.5263297 -3.0800002 1.957673
0.57071263 -3.0846508 1.9530998
-0.70386171 -3.05 1.9507554
-0.67183644 -3.0372503 1.9529693
-0.62560052 -3.0349998 1.956576
-0.57617253 -3.0299997 1.9568794
-0.52674437 -3.0299995 1.9583036
-0.47525692 -3.0299995 1.9597901
-0.42376921 -3.0299997 1.961273
-0.37434113 -3.0299995 1.9626988
-0.324913 -3.0299995 1.9641228
-0.27548489 -3.0299997 1.9655448
-0.22605675 -3.0299995 1.967041
-0.17662869 -3.0299995 1.9700623
-0.12514107 -3.0299995 1.9742589
-0.073653437 -3.0299997 1.9784499
-0.02911666 -3.0293748 1.9818722
0.031675197 -3.0287807 1.9811273
0.07340271 -3.0299995 1.977924
0.12487171 -3.03 1.9727436
0.17634067 -3.0299995 1.9675494
0.22575082 -3.0299997 1.9625754
0.27477726 -3.0303388 1.9578563
0.32457134 -3.0349998 1.9559808
0.37398154 -3.0400002 1.9547225
0.42180803 -3.0438461 1.9531904
0.47184122 -3.0486665 1.9518497
0.50574207 -3.05 1.9503709
-0.47319725 -3 1.9507188
-0.42376915 -3 1.9521437
-0.37335607 -2.9952178 1.9521424
-0.32491297 -2.9950001 1.9534746
-0.27379975 -2.9909093 1.9537009
-0.22605674 -2.9900002 1.9547735
-0.17495231 -2.9867444 1.9555614
-0.12364969 -2.982414 1.9579178
-0.073653474 -2.9800003 1.9611641
-0.025006527 -2.9794836 1.9648758
0.026773151 -2.9790571 1.9642584
0.073402725 -2.9800005 1.9617267
0.12349922 -2.981667 1.957642
0.17405316 -2.9894443 1.9549947
0.22163337 -2.9966669 1.952474
0.25457352 -3 1.9502854
-0.065415427 -2.9500003 1.9514329
-0.022353064 -2.9454544 1.9532634
0.019936955 -2.9452 1.9529142
0.073402733 -2.9500005 1.9515878
-0.022650428 -2.7958822 1.9749939
0.019360304 -2.7962499 1.9739521
-0.022650428 -2.6741173 1.9742162
0.017816238 -2.6733332 1.9716581
1.1439574 -5.7649999 2.0025687
1.1624862 -5.7649994 2.0041006
-0.077085964 -5.7116661 2.0001154
1.1439574 -5.7299995 2.012486
1.1608924 -5.7303233 2.0145414
-0.065415427 -5.6950002 2.0003526
-0.040701374 -5.6900001 2.000133
1.1441861 -5.6822224 2.0074589
1.1617376 -5.6796961 2.0079572
-0.81383926 -5.5199995 2.0447316
-0.77388483 -5.5299993 2.047734
-0.72445679 -5.5299993 2.0471101
-0.67502862 -5.5299993 2.0464871
-0.62560064 -5.5299993 2.0458639
-0.57617247 -5.5299993 2.0452387
-0.52674437 -5.5299993 2.044616
-0.47525677 -5.5299993 2.0439672
-0.42376915 -5.5299993 2.0433166
-0.3743411 -5.5299993 2.0426939
-0.324913 -5.5299993 2.0420728
-0.27548483 -5.5299993 2.0414467
-0.22605675 -5.5299993 2.0408232
-0.17250964 -5.5274992 2.0426207
-0.12514107 -5.5249991 2.0444975
-0.073653445 -5.5249991 2.0438483
-0.043790624 -5.5274992 2.0410061
0.046638846 -5.5299997 2.0373919
0.073402725 -5.519999 2.0445077
0.12487167 -5.519999 2.0438466
0.1763407 -5.519999 2.0431867
0.22575089 -5.519999 2.042552
0.27516112 -5.5199995 2.0419188
0.32457134 -5.52 2.0412841
0.37398154 -5.5199995 2.0406513
0.4233917 -5.519999 2.0400183
0.47486076 -5.519999 2.0393565
0.5263297 -5.52 2.0386975
0.5757398 -5.52 2.0380638
0.62515014 -5.5199995 2.0374291
0.67456031 -5.5199995 2.0367951
0.72397053 -5.519999 2.0361605
0.77216971 -5.5194116 2.0344157
0.80220336 -5.5149999 2.0209396
-1.1528336 -5.4799995 2.0394413
-1.1240008 -5.4800005 2.0390673
-1.0745724 -5.4800005 2.038398
-1.0249872 -5.4804845 2.0368977
-0.97571594 -5.480001 2.0370553
-0.92628825 -5.480001 2.0363812
-0.87480068 -5.48 2.0356781
-0.8334927 -5.481143 2.0391262
-0.061067589 -5.4622216 2.0498543
-0.046879888 -5.4650002 2.0497479
0.073402725 -5.4800005 2.048588
0.12487171 -5.4799995 2.0478976
0.17634065 -5.4800005 2.047204
0.22575088 -5.4800005 2.0465403
0.27516115 -5.480001 2.0458727
0.32457131 -5.480001 2.0452082
0.37398139 -5.4800005 2.0445416
0.42339179 -5.480001 2.0438781
0.4748607 -5.4800005 2.0431817
0.52632976 -5.4800005 2.0424893
0.57573974 -5.4800005 2.0418246
0.62515026 -5.480001 2.0411584
0.67456025 -5.4800005 2.0404909
0.72397053 -5.480001 2.0398242
0.7733807 -5.4800005 2.0384865
0.82484967 -5.4799995 2.0155985
0.87631863 -5.4800005 2.011884
0.92572898 -5.48 2.0112112
0.97513902 -5.4800005 2.0105414
1.0245494 -5.4800005 2.0098751
1.0739595 -5.48 2.0092077
1.1233697 -5.4800005 2.0085447
1.1624862 -5.4800005 2.0080178
-1.1528337 -5.4449997 2.036737
-1.1240004 -5.4449997 2.0363457
-1.0745724 -5.4450002 2.0356801
-1.0246358 -5.4450002 2.0329688
-0.97571629 -5.4449997 2.0343487
-0.92628813 -5.4449997 2.0336807
-0.87480056 -5.4450002 2.0329852
-0.83540148 -5.4330435 2.041626
-0.16728166 -5.4130764 2.0497677
-0.1226135 -5.4224992 2.0494542
-0.07365346 -5.4300008 2.0490246
-0.046879888 -5.4299998 2.048676
0.073402725 -5.4300008 2.0470438
0.12487171 -5.4300013 2.0463519
0.17634064 -5.4300008 2.0456576
0.22575091 -5.4300003 2.0449913
0.27516109 -5.4300003 2.0443273
0.32457128 -5.4300003 2.0436616
0.37398154 -5.4300003 2.0429947
0.42339185 -5.4300008 2.0423324
0.47486073 -5.4300008 2.0416355
0.52632976 -5.4300008 2.0409431
0.57574004 -5.4300008 2.0402782
0.62515032 -5.4300003 2.0396118
0.67456043 -5.4300003 2.038945
0.72397059 -5.4300003 2.0382788
0.77338082 -5.4299998 2.0376136
0.81895411 -5.434772 2.0211926
0.87631875 -5.4449997 2.0091958
0.9257288 -5.4449997 2.0085175
0.97513908 -5.4449997 2.0078385
1.0245494 -5.4449992 2.0071588
1.0739597 -5.4449997 2.0064821
1.1233698 -5.4449997 2.0058029
1.1645451 -5.4449997 2.0052464
-0.85008651 -5.3700004 2.0378354
-0.84107614 -5.3831253 2.0438492
-0.30225843 -5.3599997 2.0499489
-0.27061692 -5.3654552 2.0496829
-0.22373982 -5.3756251 2.0493693
-0.17662866 -5.3799987 2.0488689
-0.12514108 -5.3799992 2.0481744
-0.073653445 -5.3799992 2.0474806
-0.04570302 -5.3757138 2.0469749
0.073402725 -5.3799987 2.0454984
0.12487169 -5.3799996 2.0448053
0.17634071 -5.3799987 2.0441127
0.22575089 -5.3799996 2.0434456
0.27516115 -5.3799992 2.0427811
0.32457128 -5.3799992 2.0421138
0.37398148 -5.3799996 2.0414507
0.4233917 -5.3799992 2.0407848
0.47486064 -5.3799992 2.0400901
0.52632964 -5.3799992 2.039397
0.57573974 -5.3799996 2.0387304
0.62514997 -5.3799987 2.0380652
0.67456043 -5.3799996 2.0373971
0.72397047 -5.3799992 2.0367341
0.77338082 -5.3799982 2.0360658
0.81476176 -5.3784995 2.0286932
-0.85448009 -5.327333 2.0397253
-0.84514368 -5.3380003 2.0465083
-0.41141212 -5.3099999 2.0498548
-0.37121862 -5.3187089 2.0495856
-0.32360241 -5.3281813 2.0492406
-0.27548486 -5.3299994 2.0486474
-0.22605677 -5.3299999 2.0479834
-0.17662868 -5.3299999 2.0473177
-0.1251411 -5.3300004 2.0466256
-0.07365343 -5.3299994 2.0459321
-0.044820368 -5.3299999 2.0455422
0.046638846 -5.3149996 2.0438123
0.07340271 -5.3299994 2.0439517
0.12487171 -5.3299994 2.0432596
0.17634065 -5.3300004 2.0425661
0.22575086 -5.3299999 2.0419009
0.27516109 -5.3299994 2.0412345
0.32457134 -5.3300004 2.0405691
0.37398151 -5.3299999 2.0399039
0.42339173 -5.3299999 2.0392375
0.47486067 -5.3299999 2.0385444
0.5263297 -5.3299994 2.0378499
0.57573974 -5.3299999 2.037185
0.62515002 -5.3299994 2.0365186
0.67456013 -5.3299994 2.0358517
0.72397029 -5.3299999 2.0351889
0.77338082 -5.3300004 2.0345187
0.81919801 -5.3290195 2.0288999
-0.85989368 -5.2804761 2.0414038
-0.51747662 -5.2624993 2.0498025
-0.47174045 -5.2717071 2.0494785
-0.42338511 -5.2796607 2.0490766
-0.3743411 -5.2799993 2.0484252
-0.32491302 -5.2799993 2.0477602
-0.27548486 -5.2799988 2.047096
-0.22605674 -5.2799988 2.0464296
-0.17662868 -5.2799993 2.0457666
-0.12514108 -5.2799993 2.0450733
-0.07365343 -5.2799993 2.0443799
-0.044820368 -5.2799997 2.0439939
0.046638846 -5.2799997 2.0427339
0.07340274 -5.2799997 2.0424027
0.12487169 -5.2799997 2.0417106
0.17634067 -5.2799993 2.0410175
0.22575094 -5.2799993 2.0403547
0.27516112 -5.2799997 2.0396886
0.32457128 -5.2799997 2.0390229
0.37398136 -5.2799997 2.0383575
0.42339176 -5.2799988 2.0376902
0.47486079 -5.2799993 2.0369987
0.52632964 -5.2799997 2.0363047
0.57573998 -5.2799993 2.0356393
0.62515014 -5.2799993 2.0349715
0.67456025 -5.2799993 2.0343041
0.72397041 -5.2799983 2.0336428
0.77338082 -5.2799997 2.0329733
0.82406539 -5.2795234 2.0280786
-0.86889076 -5.2304344 2.0408311
-0.65237415 -5.21 2.0499878
-0.6208638 -5.2145 2.0497088
-0.57384437 -5.2247834 2.049392
-0.52674443 -5.2300005 2.0489218
-0.47525683 -5.23 2.0482326
-0.42376915 -5.230001 2.047539
-0.37434098 -5.2300005 2.0468731
-0.32491297 -5.2300005 2.0462072
-0.27548483 -5.230001 2.0455439
-0.22605667 -5.2300005 2.0448775
-0.17662868 -5.230001 2.0442138
-0.12514105 -5.2299995 2.0435197
-0.073653445 -5.23 2.0428259
-0.044820368 -5.23 2.0424376
0.046638846 -5.23 2.0411923
0.073402718 -5.230001 2.040849
0.12487171 -5.2300005 2.0401578
0.17634064 -5.2300014 2.0394664
0.22575088 -5.2300005 2.0388024
0.27516112 -5.2300014 2.0381386
0.32457122 -5.23 2.0374758
0.37398145 -5.230001 2.0368102
0.42339176 -5.230001 2.0361428
0.47486079 -5.2300005 2.0354538
0.5263297 -5.230001 2.0347574
0.57573974 -5.2300005 2.0340908
0.62515038 -5.2300005 2.0334249
0.67456025 -5.230001 2.0327601
0.72397041 -5.2300005 2.0320952
0.77338058 -5.2300005 2.0314276
0.82484984 -5.23 2.0291977
0.85595989 -5.2244439 2.0132692
-0.87857634 -5.1799998 2.0395806
-0.75946838 -5.1599998 2.0498786
-0.72107321 -5.1675 2.0495942
-0.67365569 -5.1777773 2.0492775
-0.62560046 -5.1800003 2.0486994
-0.57617241 -5.1799998 2.0480328
-0.52674443 -5.1800003 2.0473695
-0.47525674 -5.1800008 2.0466802
-0.42376933 -5.1800003 2.045985
-0.37434107 -5.1800008 2.0453212
-0.32491297 -5.1800003 2.0446541
-0.27548483 -5.1799998 2.0439906
-0.22605675 -5.1799998 2.0433264
-0.17662869 -5.1800003 2.042659
-0.12514104 -5.1800003 2.0419669
-0.073653452 -5.1800003 2.0412748
-0.044820368 -5.1800003 2.0408885
0.046638846 -5.1799998 2.0396502
0.073402725 -5.1800003 2.0392981
0.12487171 -5.1800003 2.0386052
0.17634071 -5.1799998 2.0379152
0.22575089 -5.1800003 2.0372488
0.27516112 -5.1799998 2.036586
0.32457128 -5.1800003 2.0359235
0.37398142 -5.1800003 2.0352583
0.42339161 -5.1800003 2.0345922
0.47486073 -5.1800008 2.0339041
0.52632976 -5.1799994 2.03321
0.57573992 -5.1800003 2.0325441
0.62515008 -5.1800003 2.0318778
0.67456037 -5.1799998 2.031214
0.72397035 -5.1800003 2.030549
0.77338058 -5.1800008 2.0298815
0.82484943 -5.1800008 2.0290372
0.86005437 -5.178 2.0170906
-0.87891984 -5.1242852 2.0428038
-0.8200289 -5.1213517 2.0494928
-0.77317464 -5.1293101 2.0491095
-0.72445679 -5.1299992 2.0484757
-0.67502886 -5.1299996 2.0478117
-0.62560064 -5.1299987 2.0471468
-0.57617247 -5.1299996 2.0464809
-0.52674431 -5.1299996 2.0458171
-0.4752568 -5.1299992 2.0451264
-0.42376915 -5.1299996 2.0444312
-0.37434107 -5.1299992 2.0437682
-0.324913 -5.1299992 2.043103
-0.27548483 -5.1300001 2.0424373
-0.22605677 -5.1299992 2.0417724
-0.17662869 -5.1299982 2.0411062
-0.12514108 -5.1299992 2.0404139
-0.073653452 -5.1299992 2.039722
-0.04379062 -5.1275001 2.0392435
0.046638846 -5.1300001 2.0381083
0.073402718 -5.1299992 2.0377426
0.12487171 -5.1299992 2.0370533
0.17634073 -5.1299992 2.0363626
0.22575095 -5.1299987 2.0356982
0.27516109 -5.1299992 2.0350327
0.32457119 -5.1300001 2.0343697
0.37398148 -5.1299992 2.0337052
0.42339161 -5.1299996 2.03304
0.4748607 -5.1299992 2.0323505
0.5263297 -5.1299992 2.0316577
0.57573992 -5.1299987 2.0309923
0.62514997 -5.1299992 2.0303261
0.67456031 -5.1299992 2.0296652
0.72397059 -5.1299992 2.0289996
0.77338099 -5.1299996 2.0283341
0.82484955 -5.1299992 2.0276399
0.86486673 -5.1290627 2.019274
-0.86656255 -5.0999999 2.0364366
-0.823313 -5.0999994 2.0373144
-0.77388477 -5.0999994 2.0365961
-0.72445679 -5.0999994 2.0358794
-0.67502862 -5.0999994 2.0351589
-0.62560058 -5.0999994 2.0344396
-0.57617241 -5.0999994 2.033721
-0.52674443 -5.0999994 2.0329998
-0.47525674 -5.0999994 2.0322518
-0.42376915 -5.0999994 2.0314999
-0.3743411 -5.0999994 2.0307848
-0.324913 -5.0999994 2.0300636
-0.27548483 -5.0999994 2.0293422
-0.22605675 -5.0999994 2.0286245
-0.17662863 -5.0999994 2.0279033
-0.12514105 -5.0999994 2.0271566
-0.073653445 -5.0999994 2.0264044
-0.040701374 -5.0999999 2.0259247
0.042521358 -5.0999999 2.0246706
0.073402733 -5.0999994 2.0242183
0.12487172 -5.0999994 2.0234494
0.17634065 -5.0999994 2.0226886
0.22575091 -5.0999994 2.0219519
0.27516112 -5.0999994 2.0212171
