# .PCD v0.7 - Point Cloud Data file format
VERSION 0.7
FIELDS x y z
SIZE 4 4 4
TYPE F F F
COUNT 1 1 1
WIDTH 1504
HEIGHT 1
VIEWPOINT 0 0 0 1 0 0 0
POINTS 1504
DATA ascii
1.2256566 -3.8159993 1.7766515
1.2783159 -3.8339996 1.7751248
-1.1722863 -3.7792795 1.7740805
-1.1458337 -3.779999 1.7744493
1.1349475 -3.7709997 1.7747917
1.1728603 -3.7980001 1.7751249
-1.164035 -3.7255135 1.7743
1.1440333 -3.7439997 1.7751249
1.1531236 -3.7169993 1.7754579
-1.1820796 -3.671526 1.7741582
1.168276 -3.6719997 1.7751245
-1.2000401 -3.6179996 1.7578506
-1.1963419 -3.6287999 1.7783226
1.1834286 -3.6269989 1.7749584
-1.2119987 -3.5820003 1.7745466
1.1954188 -3.5913911 1.7746469
1.2046444 -3.5639994 1.7742089
-1.2300462 -3.5279994 1.7747406
1.2167633 -3.5279994 1.7746015
-1.2541127 -3.4560001 1.7740239
-1.2450887 -3.4829993 1.7741659
1.2349453 -3.4739993 1.7746016
-1.2661471 -3.4199989 1.7739289
1.2470646 -3.4379997 1.7751247
1.2561578 -3.4109995 1.7751249
-1.2811896 -3.375 1.7755846
1.2682869 -3.375 1.7754301
-1.302283 -3.312 1.77601
-1.2932502 -3.3389995 1.7740237
1.2834693 -3.3299992 1.7746158
-1.3143488 -3.276 1.7740241
1.2956041 -3.293999 1.7769569
1.3047234 -3.2670002 1.7745143
-1.3322833 -3.2224495 1.773896
1.3199017 -3.2219996 1.7752236
-1.3505162 -3.1679995 1.7744493
-1.3444829 -3.1859996 1.7757262
1.3350805 -3.1769993 1.7761935
-1.362573 -3.1319993 1.7742127
1.3441914 -3.1499999 1.7751249
1.3533026 -3.1229992 1.7748194
-1.3805099 -3.078439 1.7741344
1.3683258 -3.078474 1.7746426
-1.395137 -3.0239997 1.7745416
1.3820575 -3.0239997 1.7750256
-1.3849157 -2.97 1.7747644
1.3716521 -2.9704857 1.7749267
-1.3737044 -2.9253328 1.7738349
1.3604566 -2.9253595 1.7745388
-1.3623464 -2.8799996 1.7744045
1.3464109 -2.87064 1.7749783
1.3536665 -2.897999 1.7751248
-1.3306966 -2.8284991 1.7770113
1.2978983 -2.8079998 1.7861167
1.3211434 -2.8353591 1.7758576
-1.5174221 -2.6099997 1.7560064
-1.5049911 -2.5919998 1.7578506
-1.4780849 -2.5721996 1.7615392
-1.4318596 -2.5559998 1.7873595
1.506804 -2.5559998 1.7549729
-1.4570618 -2.5379996 1.7541622
-1.4218905 -2.52 1.7641213
-1.3842077 -2.5079997 1.7849003
1.4315075 -2.5071425 1.773031
1.4709508 -2.5307999 1.7641329
-1.408426 -2.4839997 1.7504735
-1.3764133 -2.4749997 1.7679944
-1.3394781 -2.4719996 1.791048
1.3968028 -2.4719996 1.7763461
1.4099522 -2.4779997 1.7739035
-1.3555481 -2.4389997 1.7560064
-1.322046 -2.4325712 1.7747127
-1.2811526 -2.4142499 1.7899805
1.333317 -2.4119997 1.7732928
1.3645694 -2.4322495 1.7710027
-1.3080761 -2.3939996 1.7578506
-1.274282 -2.3795996 1.7703393
-1.2411096 -2.3759997 1.7902498
1.245005 -2.3579998 1.7961231
1.2788881 -2.3699996 1.7836562
1.3182544 -2.3759995 1.7616506
-1.2635041 -2.3399997 1.7504735
-1.2314813 -2.3155196 1.7757035
-1.1975861 -2.3399997 1.7965809
1.2269459 -2.3111997 1.786483
1.2737992 -2.3316922 1.7621341
-1.2592891 -2.2774732 1.7801765
-1.2415121 -2.2731423 1.7562697
-0.8830601 -2.2679999 1.7789053
0.87877393 -2.2721536 1.7786069
1.2403321 -2.2779994 1.7718682
1.2535378 -2.2739995 1.7867273
-1.2246008 -2.2334208 1.7754203
-1.1931275 -2.2139997 1.7541622
-0.9036361 -2.214 1.7785999
-0.87151104 -2.2302577 1.778692
-0.8427313 -2.2247999 1.7786623
0.840738 -2.2305 1.7783791
0.8677327 -2.2337999 1.7783949
1.1899149 -2.2193997 1.7619345
1.2194802 -2.2363443 1.7796732
-1.2001921 -2.1959996 1.7984252
-1.1774892 -2.1779995 1.7742127
-1.1476281 -2.1599996 1.7504735
-1.0353221 -2.1599998 1.7779849
-0.96495235 -2.1635997 1.7783324
-0.92626959 -2.178 1.7781615
-0.88671803 -2.1939998 1.7785015
-0.18347813 -2.178 1.7959136
0.17436743 -2.178 1.7959776
0.98616958 -2.1869998 1.7885004
1.0273479 -2.1599998 1.7961879
1.1432916 -2.1599996 1.7604688
1.172704 -2.1801817 1.776679
-1.1517267 -2.1419997 1.791048
-1.1338009 -2.1254995 1.7769088
-1.0254732 -2.1159999 1.7718284
-0.97988814 -2.1367056 1.7780632
-0.2596091 -2.1239998 1.753456
-0.23286039 -2.1239998 1.7534189
0.1390717 -2.1059999 1.7986019
0.22731102 -2.1240001 1.7508435
0.27633289 -2.1240001 1.7507769
0.6959601 -2.1239998 1.7828451
0.72537327 -2.1240001 1.784613
0.77439523 -2.1240001 1.7875222
0.82537782 -2.1240001 1.7905482
0.8763606 -2.1240001 1.7935879
0.92146063 -2.1240001 1.796273
0.98813039 -2.1239998 1.7777492
1.017097 -2.1129997 1.7745734
1.1260425 -2.1239998 1.7743666
1.1507974 -2.1419997 1.7879486
-1.0355372 -2.0705295 1.7692965
-0.62123132 -2.0677497 1.7784697
-0.57798749 -2.0687997 1.7874583
-0.51860869 -2.0632498 1.7891994
-0.47359893 -2.0609996 1.7883707
-0.42402956 -2.0667272 1.7905117
-0.37483439 -2.0699999 1.7916903
-0.32545212 -2.0699999 1.7916752
-0.29664582 -2.0699999 1.7916669
-0.14644146 -2.0699999 1.7953509
0.13809127 -2.0654998 1.7957489
0.59448487 -2.0722499 1.7631071
0.60575986 -2.0699999 1.7624301
1.0257353 -2.0699995 1.7715153
-1.0361556 -2.0246084 1.7694292
-0.62380332 -2.0249999 1.7748852
-0.59911215 -2.0249999 1.7710383
-0.14232624 -2.0249999 1.7992575
0.13711083 -2.0249999 1.7952217
0.28809819 -2.0279999 1.7912282
0.32535481 -2.0340002 1.7913361
0.36849403 -2.0340002 1.7913229
0.58343607 -2.0298462 1.7880585
0.61662012 -2.0284615 1.7880528
1.0254079 -2.0249999 1.7707838
-1.044655 -1.9794852 1.7747129
-0.6340912 -1.989 1.7876376
-0.59774041 -1.9859999 1.7875123
-0.21639964 -1.9619999 1.7862384
-0.14232624 -1.9799999 1.7975407
0.13514996 -1.9799999 1.7968521
0.19789791 -1.9619999 1.7868319
0.21750665 -1.9619999 1.7868811
0.28417638 -1.9799998 1.7909209
0.58713156 -1.9844999 1.7894337
0.62046641 -1.9844999 1.7929285
1.0345472 -1.979419 1.7728434
-1.0447747 -1.9259999 1.775556
-0.62174565 -1.9259999 1.7952628
-0.59774041 -1.9199997 1.7852663
-0.14026865 -1.9259999 1.7954772
0.13318908 -1.926 1.794908
0.19789791 -1.9439999 1.7887359
0.21750665 -1.932353 1.7740222
0.58615112 -1.926 1.7938452
0.61360335 -1.926 1.7938193
1.0349157 -1.9265807 1.7737066
-0.98242128 -1.872 1.7736111
-0.13821107 -1.872 1.7962359
0.13318908 -1.8719999 1.7923012
0.97219336 -1.872 1.7754912
-0.98236281 -1.8269998 1.7736112
-0.10528957 -1.836 1.7882522
-0.09705919 -1.836 1.7995439
0.095932484 -1.827 1.7912707
0.10377598 -1.8269999 1.778981
0.42732024 -1.8270001 1.7941852
0.4763422 -1.8270001 1.7941633
0.52536404 -1.8270001 1.7941347
0.55477715 -1.827 1.7941064
0.94122213 -1.8180001 1.775791
0.97223979 -1.8359998 1.7754911
-0.93571091 -1.7909999 1.7732759
0.095148131 -1.7802 1.7905166
0.10377598 -1.8 1.776722
0.42732021 -1.7909999 1.7779158
0.47634214 -1.7909999 1.7778939
0.52536404 -1.7909998 1.7778713
0.55477715 -1.7909999 1.7778512
0.92209244 -1.7948569 1.7735547
0.093136273 -1.7267143 1.7896221
0.091397174 -1.6739999 1.7885375
0.088818811 -1.618875 1.7895261
0.088097095 -1.5743077 1.7864095
0.086600721 -1.5311251 1.7869792
0.084321797 -1.4759998 1.7868524
0.082324162 -1.4211 1.7858471
0.08073286 -1.377 1.7876713
-0.08054626 -1.3139999 1.7996609
0.08073286 -1.332 1.7874049
-0.08054626 -1.278 1.7987208
0.08073286 -1.278 1.7870871
-0.08054626 -1.224 1.7973119
0.081254341 -1.2249472 1.7862368
-0.08054626 -1.17 1.7959032
0.081558548 -1.17 1.785663
-0.08054626 -1.125 1.794729
0.081558548 -1.125 1.7854619
-0.08054626 -1.0799999 1.7935547
0.081990376 -1.08 1.7848443
-0.084468007 -1.0259999 1.7921458
0.082517765 -1.0259999 1.7838812
-0.084468007 -0.97199994 1.790737
0.082206286 -0.97199988 1.7844369
-0.084468007 -0.92699999 1.7895629
0.082028404 -0.92769235 1.7846353
-0.082471818 -0.88199997 1.7910259
0.082206286 -0.88199997 1.7842931
-0.085558206 -0.82799995 1.7857902
0.08197505 -0.82709998 1.7844089
-0.083452255 -0.77849996 1.7888085
0.081875943 -0.77399987 1.7843326
-0.084603868 -0.71399999 1.7868763
0.081875943 -0.71999997 1.7841353
-0.084656954 -0.6743077 1.7860749
0.081875943 -0.67500001 1.7839485
-0.084083214 -0.63 1.7862017
0.081224687 -0.62918186 1.7844924
-0.084083214 -0.57599998 1.785493
0.080084987 -0.57599992 1.7850553
-0.084083207 -0.52199996 1.7846538
0.079192311 -0.52130759 1.785406
-0.084363334 -0.477 1.7841718
0.079252809 -0.47700003 1.7854124
-0.083435833 -0.43199995 1.785678
0.079405218 -0.43199995 1.7850815
-0.083599247 -0.37799999 1.7851409
0.079710044 -0.37799999 1.7846034
-0.083599247 -0.324 1.784604
0.079710059 -0.32399994 1.7839116
-0.083599247 -0.26999995 1.7840672
0.079710044 -0.27000001 1.7834588
-0.083599247 -0.22500001 1.7836195
0.079710044 -0.22500001 1.7832614
-0.083926059 -0.17999999 1.783172
0.079710044 -0.17999999 1.783064
-0.084579684 -0.126 1.7826353
0.079710044 -0.126 1.7828275
-0.084579684 -0.072000004 1.7820989
0.079710044 -0.072000012 1.7825904
-0.082234077 -0.026400002 1.7849323
0.079710044 -0.027000003 1.7823933
-0.081638373 0 1.7856185
0.079710044 0 1.7822747
-1.0289558 -7.1176376 1.820798
-0.97565198 -7.1190009 1.8227787
-0.92626953 -7.1190009 1.822825
-0.87482959 -7.1190009 1.8228732
-0.82338971 -7.119 1.8229214
-0.77400762 -7.119 1.822968
-0.72294188 -7.1263642 1.8233514
-0.67682588 -7.1210775 1.822968
-0.62586087 -7.1190009 1.8231066
-0.57647866 -7.1190009 1.8231531
-0.52503878 -7.1190004 1.8232011
-0.47359887 -7.1190009 1.8232495
-0.42331126 -7.1200805 1.8234067
-0.37651789 -7.1263642 1.8233747
-0.32545212 -7.119 1.8233881
-0.27606988 -7.1190009 1.823434
-0.2266876 -7.119 1.8234802
-0.17524777 -7.1190009 1.8235289
-0.12380793 -7.119 1.8235766
-0.07074707 -7.1198196 1.8226519
0.039319657 -7.1185708 1.8232424
0.071928114 -7.1194739 1.8232412
0.12534559 -7.119 1.8238549
0.17436743 -7.1190004 1.8239007
0.22535013 -7.1190009 1.823948
0.27633289 -7.119 1.8239956
0.32637447 -7.1208 1.8247806
0.37235975 -7.1259437 1.8239615
0.42535931 -7.1190009 1.8241338
0.47634217 -7.1190009 1.8241814
0.5253641 -7.1190009 1.8242269
0.57438588 -7.1190004 1.8242723
0.62536865 -7.1190009 1.8243198
0.67884707 -7.1247277 1.8244296
0.72313225 -7.1228576 1.824253
0.77439511 -7.1190004 1.8244585
0.82537782 -7.1190009 1.8245057
0.8763606 -7.1190004 1.8245536
0.92538244 -7.119 1.8245988
0.97546428 -7.1180696 1.8225542
1.0185941 -7.1182504 1.8208259
-1.0110141 -7.0739989 1.8244913
0.030511618 -7.0919995 1.8384579
0.98470455 -7.0716763 1.8214563
1.02539 -7.0889988 1.8422976
-1.0067683 -7.019999 1.8246142
0.98477048 -7.0199995 1.8245885
-1.0067146 -6.9749985 1.8246139
0.98482603 -6.974999 1.8245882
-1.0066612 -6.9299989 1.824614
0.98487157 -6.9299989 1.8245883
-1.0066057 -6.875999 1.8246142
0.98492295 -6.8760009 1.8245885
-1.006554 -6.822 1.8246142
0.98496449 -6.8220005 1.8245885
-1.0065205 -6.776999 1.8246142
0.98499751 -6.776999 1.8245882
-1.0064868 -6.7319994 1.824614
0.98505771 -6.7319999 1.8245883
-1.0064067 -6.6779995 1.8246143
0.98513603 -6.6790581 1.8232951
1.0269146 -6.6599994 1.8465722
-1.0274842 -6.6226816 1.8185906
-0.9756518 -6.6150002 1.8172992
-0.92626971 -6.6149998 1.8172315
-0.87482971 -6.6150002 1.8171602
-0.82338983 -6.6150002 1.8170894
-0.77400762 -6.6150002 1.817019
-0.72462541 -6.6150002 1.8265518
-0.67524308 -6.6149998 1.8187982
-0.62586081 -6.6149998 1.816805
-0.5764786 -6.6150002 1.8167342
-0.52503884 -6.6150002 1.8166575
-0.47359893 -6.6149998 1.8165798
-0.42421666 -6.6149998 1.8175625
-0.37546062 -6.6146092 1.8249782
-0.32480553 -6.6234851 1.8269188
-0.27606988 -6.6239991 1.827486
-0.22668764 -6.6239986 1.8274106
-0.17524776 -6.6239982 1.8273339
-0.12380791 -6.6239986 1.8272561
-0.071298726 -6.621748 1.8243766
0.039843321 -6.6245999 1.8264844
0.072274417 -6.6223607 1.8250134
0.12534557 -6.6239986 1.8269792
0.17436741 -6.6239991 1.8269116
0.22535016 -6.6239991 1.8268411
0.27633291 -6.6239982 1.8267703
0.32327139 -6.6223116 1.8260444
0.37640515 -6.6177931 1.8264989
0.4253594 -6.6239991 1.8265635
0.47634214 -6.6239982 1.8264931
0.52536398 -6.6239991 1.826425
0.57438594 -6.6239991 1.8263587
0.6253686 -6.6239991 1.82629
0.67377782 -6.6200619 1.8263614
0.72733408 -6.6217494 1.8262377
0.77439529 -6.6239991 1.8260888
0.82537782 -6.6239991 1.8260218
0.87636065 -6.6239991 1.8259542
0.92538238 -6.6239986 1.8258896
0.97604328 -6.6263456 1.8233663
1.0182058 -6.6262488 1.8247367
-0.3275097 -4.9139996 1.8324989
-0.24726355 -4.9319997 1.8361619
-0.084713638 -4.9499998 1.8223779
0.070441008 -4.9499998 1.8338585
0.23711538 -4.9319997 1.8361579
-0.49623245 -4.8599997 1.8034989
-0.43861979 -4.8779998 1.8346299
0.48418558 -4.8599997 1.815069
-0.54972988 -4.842 1.8386289
0.53909016 -4.842 1.8277119
-1.2582558 -4.7159991 1.8316225
-1.2461793 -4.7159991 1.8076465
-1.1958144 -4.7159996 1.8194989
1.2375033 -4.718399 1.8259315
1.2507731 -4.7159991 1.8484042
-1.2673699 -4.6795259 1.8248276
-1.2495931 -4.6979995 1.8021138
-1.1423169 -4.698 1.8139429
-1.0888195 -4.6799998 1.8038019
1.1234308 -4.698 1.8316649
1.2437023 -4.6866307 1.8129214
1.2579882 -4.6745214 1.8342264
-1.3025371 -4.6079993 1.8463769
-1.2848309 -4.6264729 1.8236628
0.91165632 -4.6259999 1.8426439
1.2700369 -4.6259985 1.8245885
-1.308188 -4.5671535 1.8304876
-1.2945182 -4.5816922 1.8117607
1.2869569 -4.573894 1.8226601
1.3033801 -4.5539994 1.8429081
-1.3188403 -4.526998 1.8242453
1.2950506 -4.5299993 1.8081006
1.3080399 -4.5255775 1.8323983
-1.3509691 -4.4639993 1.8463769
-1.3336757 -4.4824734 1.823663
1.319271 -4.4819999 1.8245885
-1.3566765 -4.4223161 1.8292927
-1.3444852 -4.435874 1.8129489
1.335366 -4.4295421 1.820558
1.3506231 -4.4099994 1.8374124
-1.3676884 -4.3746204 1.8181401
1.3454269 -4.3854537 1.8097659
1.3564926 -4.3692632 1.821792
-1.383819 -4.3208179 1.81385
1.3690437 -4.3214993 1.8137487
-1.4018275 -4.2659993 1.8131795
-1.3959558 -4.2794995 1.8094908
1.383195 -4.2749991 1.8099327
-1.4108082 -4.2329993 1.8079538
1.3937979 -4.2399993 1.8072864
1.4027094 -4.2119994 1.8062685
-1.4266081 -4.1819992 1.8045727
1.4130279 -4.1785703 1.8033898
-1.438971 -4.1399994 1.8021138
1.4246331 -4.1399994 1.8007727
-1.4081864 -3.8699996 1.8094909
-1.3557099 -3.852 1.8224009
1.3331707 -3.852 1.8238837
1.3853445 -3.8699996 1.8099326
-1.3027691 -3.8339996 1.8254749
-1.2502946 -3.8159995 1.8389997
-1.2492505 -3.8159997 1.8150239
1.2277434 -3.8159993 1.825199
1.2805284 -3.8339996 1.8261384
-1.3842071 -3.7799995 1.8168681
-1.175061 -3.7807822 1.8239247
-1.1456262 -3.779999 1.8232392
1.1346377 -3.7714281 1.8243265
1.1749902 -3.7980001 1.8245883
1.3077511 -3.7619996 1.8190925
1.3849957 -3.7709994 1.8209244
-1.3534731 -3.7079997 1.8389996
-1.2895001 -3.7259996 1.8316225
-1.2467611 -3.7259998 1.8297782
-1.1629834 -3.7286668 1.8200102
1.1458981 -3.7379994 1.8215349
1.1582313 -3.71 1.8142071
1.2252271 -3.7259996 1.8264203
1.2726616 -3.7259998 1.8282523
1.3254151 -3.7259996 1.8300843
1.3620538 -3.7304997 1.8319163
-1.3075711 -3.6899996 1.8426883
-1.2675921 -3.6719997 1.8463769
-1.2062041 -3.6899996 1.8389996
-1.1823001 -3.6708384 1.8224603
1.169611 -3.6701994 1.8209246
1.2428111 -3.6719995 1.8429083
1.2890161 -3.6719997 1.8447402
1.3370475 -3.6839998 1.8447403
-1.1966175 -3.6273906 1.8239245
1.1831427 -3.6273599 1.8239287
-1.2117867 -3.5820003 1.8242453
1.1955044 -3.5906396 1.8246614
1.2044781 -3.5639994 1.8233668
-1.2300049 -3.5274851 1.824667
1.2165973 -3.5279994 1.8240435
-1.2538961 -3.4560001 1.8245525
-1.2450063 -3.4826081 1.8240848
1.2349374 -3.473526 1.824492
-1.2661046 -3.4194856 1.8238239
1.2469004 -3.4379997 1.8239776
1.2561103 -3.4106393 1.8249549
-1.2808368 -3.375391 1.8248868
1.2681128 -3.3749998 1.8241304
-1.3020235 -3.312 1.8254747
-1.2930037 -3.3389995 1.8240916
1.2831067 -3.3304729 1.8241066
-1.3140806 -3.2760003 1.8236305
1.295393 -3.293999 1.825199
1.3045 -3.2670004 1.8244472
-1.3321621 -3.2219996 1.8238354
1.3196789 -3.2219999 1.8248777
-1.3502394 -3.1679995 1.8254749
-1.3442158 -3.1859996 1.8242455
1.334742 -3.1773596 1.824222
-1.3619533 -3.1330903 1.8208919
1.3449039 -3.1472304 1.8247292
1.3532737 -3.1225257 1.8167781
-1.3801845 -3.0787201 1.8173108
1.3680594 -3.0787199 1.8157214
-1.3948646 -3.0239997 1.8126261
1.381875 -3.0239997 1.8112148
-1.3848553 -2.9692171 1.8159057
1.3713117 -2.9684994 1.8145124
-1.3736496 -2.9245262 1.8180331
1.3604153 -2.924526 1.8169711
-1.3623571 -2.8794372 1.8215942
1.3469125 -2.8710001 1.8210908
1.353845 -2.8979993 1.8194587
-1.3282999 -2.825999 1.8244501
1.2984142 -2.8079991 1.8252928
1.3214628 -2.8349993 1.8258567
-1.2943915 -2.7863998 1.8276881
1.28184 -2.7884996 1.8303896
-1.4153712 -2.5739996 1.8113352
-1.3748035 -2.5559998 1.8242452
-1.3439411 -2.5559998 1.8463769
-1.3662415 -2.5244997 1.8094909
-1.3264459 -2.5163996 1.8308847
-1.2869921 -2.5019996 1.8463769
1.3691496 -2.5109997 1.8190924
-1.3132488 -2.4779997 1.8119501
-1.2716954 -2.4704998 1.8354312
-1.2472543 -2.4659998 1.8482654
1.3246746 -2.4749997 1.8227564
-1.264663 -2.4324 1.8139757
-1.2308714 -2.4258001 1.8321444
-1.1958359 -2.4119997 1.8464006
1.2339656 -2.4209998 1.8399533
1.2650754 -2.4270003 1.8264451
1.304442 -2.4299996 1.8081005
-1.2221549 -2.3912303 1.8142052
-1.1832148 -2.3723993 1.830705
1.1857705 -2.3799996 1.8419552
1.2264315 -2.3817856 1.8200914
1.2623729 -2.3914285 1.806529
-1.2250834 -2.3129995 1.8242453
-1.1946524 -2.3399999 1.8259219
1.1818287 -2.3399999 1.8337482
1.2132725 -2.313391 1.8245087
-1.2619045 -2.2762492 1.8233231
1.2440392 -2.2859995 1.8255043
1.2621732 -2.2679996 1.8233199
-1.2529575 -2.2499998 1.8316225
-1.2311888 -2.2270341 1.8219556
0.95087385 -2.214 1.8230829
1.2314359 -2.2319996 1.8251053
-1.2044345 -2.1959994 1.823016
-1.1810572 -2.1690001 1.8258662
-1.010631 -2.178 1.8085968
-0.98799741 -2.1959999 1.8365173
-0.17701142 -2.1857142 1.829191
0.16848481 -2.1809998 1.8284073
0.98355514 -2.1959999 1.8417897
1.0057783 -2.178 1.8187174
1.1812596 -2.1746249 1.8219551
1.2008585 -2.1959994 1.8380228
-1.1570064 -2.142 1.8260497
-1.1333889 -2.1160798 1.8294029
-0.98270684 -2.1059997 1.8113352
-0.61145771 -2.115 1.8046032
-0.59911215 -2.1149998 1.8046049
-0.53326911 -2.1059999 1.8428519
-0.26783952 -2.142 1.8221843
-0.234918 -2.142 1.8221704
-0.12175032 -2.1059999 1.8318895
0.11946297 -2.1059999 1.8259206
0.22927189 -2.142 1.8213669
0.26064587 -2.142 1.8213542
0.42614371 -2.1204 1.8302141
0.47634214 -2.1149998 1.8273568
0.52144229 -2.1195002 1.8296868
0.57752335 -2.1149998 1.8134836
0.60575986 -2.1149998 1.8042583
0.97191012 -2.1059997 1.8190925
1.1294552 -2.1149998 1.8239776
1.1529764 -2.142 1.8241655
-0.98265338 -2.0699997 1.825352
-0.53464079 -2.0624998 1.833786
-0.42833185 -2.0555999 1.832069
-0.12939282 -2.0738568 1.8195227
0.11885962 -2.0706921 1.8234221
0.42143762 -2.0879998 1.8148073
0.47634214 -2.0879996 1.8147515
0.50967705 -2.0879998 1.8147169
0.55281627 -2.0879998 1.8146904
0.97196019 -2.0699999 1.825321
-0.98259526 -2.0249996 1.825352
-0.55384505 -2.0339999 1.8353699
-0.52503878 -2.0249999 1.8321168
-0.47359887 -2.0249999 1.8292222
-0.42627421 -2.0249999 1.8326011
-0.13292012 -2.0237143 1.8119386
0.099854231 -2.0249999 1.8472884
0.11750209 -2.0249999 1.8230869
0.97201723 -2.0249996 1.8230892
-1.0357535 -1.9799997 1.8203853
-0.9825511 -1.9979998 1.8463769
-0.61274374 -1.9777497 1.8262907
-0.59705454 -1.9619999 1.8070904
-0.52503878 -1.9889998 1.8193563
-0.47359896 -1.989 1.8193301
-0.42627418 -1.9889998 1.8193011
-0.1279231 -1.9754997 1.8169414
0.099854231 -1.9799999 1.8458639
0.11750209 -1.98 1.8215193
0.59399462 -1.9754999 1.8254526
0.60968161 -1.9754997 1.8251696
0.97206306 -1.9979998 1.8447402
1.0265323 -1.9799995 1.8174264
-1.035583 -1.9259995 1.8179377
-0.9824357 -1.9079996 1.8414588
-0.61363643 -1.9281176 1.820792
-0.59705454 -1.9439999 1.8070269
-0.12586552 -1.9304999 1.8173363
0.098285533 -1.9223998 1.8461838
0.11554122 -1.9259998 1.8207296
0.42732024 -1.926 1.8389266
0.47634214 -1.926 1.8388937
0.52536404 -1.926 1.8388299
0.57323241 -1.9281176 1.8304513
0.60968161 -1.9304999 1.8210129
0.97217774 -1.9079996 1.8410763
1.0252968 -1.9275649 1.8163474
-0.98239803 -1.8720001 1.8232393
-0.12196691 -1.8682104 1.8189639
0.097052984 -1.8694284 1.843895
0.11554122 -1.8719999 1.8179183
0.42732021 -1.8720002 1.8145224
0.47634214 -1.8720001 1.8144997
0.52536404 -1.8720002 1.8144526
0.55477715 -1.872 1.8144275
0.97221535 -1.872 1.8230895
-0.98233962 -1.827 1.8232394
-0.055054903 -1.8269999 1.8443307
-0.044130035 -1.8257141 1.8477972
0.038374819 -1.8266088 1.8466425
0.067144856 -1.827 1.8295133
0.94125962 -1.8180001 1.8260872
0.97226202 -1.836 1.8230892
-0.92600548 -1.791 1.8293929
-0.87482971 -1.7909998 1.849174
-0.82338983 -1.7909999 1.8491739
-0.77400762 -1.7909999 1.8491737
-0.7266829 -1.7909999 1.8417205
-0.055054903 -1.7819999 1.8420514
-0.04059346 -1.7808747 1.8466663
0.03654575 -1.78155 1.8453112
0.067276768 -1.782409 1.8267578
0.73171729 -1.792588 1.8479753
0.77439511 -1.7909998 1.8488641
0.82537788 -1.7909999 1.8488637
0.87636065 -1.7910001 1.848863
0.91843873 -1.7909998 1.8254299
-0.055895276 -1.7254285 1.8394601
-0.037995301 -1.7279999 1.8452699
0.032737322 -1.7265878 1.8445597
0.066325463 -1.7284496 1.8251803
-0.057015777 -1.674 1.8372214
-0.034740254 -1.6732798 1.8444165
0.030587653 -1.6746318 1.8431495
0.064732492 -1.6744738 1.8243523
-0.057015777 -1.6199999 1.8344874
-0.030828627 -1.6194192 1.8430792
0.030509025 -1.6196537 1.8408751
0.064128369 -1.6205144 1.822385
-0.057015777 -1.5749999 1.8322095
-0.028369971 -1.5746086 1.8423373
0.028807083 -1.5752728 1.8397352
0.063399464 -1.5754284 1.8201449
-0.05897665 -1.5300001 1.8305731
-0.025641799 -1.53 1.8417166
0.027859317 -1.5296 1.8382572
0.062902175 -1.5300001 1.8188967
-0.059957087 -1.4759998 1.8261889
-0.024472279 -1.4760001 1.8395989
0.027859317 -1.4768002 1.8360327
0.061445706 -1.4766428 1.81784
-0.062144216 -1.4206153 1.8210385
-0.024709275 -1.4219998 1.8374381
0.025340915 -1.4219998 1.834686
0.061315704 -1.4243479 1.8148369
-0.062506221 -1.3769999 1.8194717
-0.025086187 -1.3766668 1.8369062
0.025340915 -1.377 1.83373
0.061102729 -1.3769999 1.8145113
-0.062058024 -1.3332857 1.8201771
-0.025266761 -1.3319999 1.8365444
0.025340915 -1.3319998 1.8334832
0.060965642 -1.3330588 1.8145685
-0.059957087 -1.278 1.8228378
-0.024472279 -1.2779998 1.836421
0.025778821 -1.27755 1.8330481
0.060811423 -1.2791249 1.8146633
-0.059957087 -1.224 1.8221966
-0.024374297 -1.2240002 1.8360957
0.025367301 -1.2240002 1.8328953
0.06063664 -1.2240001 1.8148545
-0.059957087 -1.17 1.8215553
-0.025059402 -1.1695907 1.8354518
0.024890551 -1.1699998 1.8327979
0.06063664 -1.17 1.8145753
-0.059957087 -1.125 1.8210212
-0.025611658 -1.1252903 1.8349472
0.024922764 -1.1246667 1.8325853
0.06063664 -1.1249999 1.8143833
-0.059957087 -1.0799999 1.8204867
-0.025715059 -1.08 1.8346078
0.025058663 -1.0799999 1.8323002
0.060811423 -1.0799999 1.8137616
-0.060882017 -1.0273845 1.8195413
-0.026311154 -1.0256084 1.8340164
0.024890551 -1.0259998 1.8320767
0.059755292 -1.0259998 1.8150812
-0.060937524 -0.97199988 1.8192043
-0.025744909 -0.97240001 1.8338513
0.025161544 -0.972 1.8316895
0.059513226 -0.97094101 1.8149757
-0.059921369 -0.92800003 1.8193537
-0.024717228 -0.92699999 1.8339404
0.026004195 -0.92699999 1.8311892
0.06063664 -0.92700005 1.8138069
-0.060937524 -0.88199991 1.8181356
-0.024872346 -0.88199991 1.8335251
0.025392404 -0.88199997 1.8311286
0.060039826 -0.88199997 1.8142117
-0.060937524 -0.82799989 1.817392
-0.025648046 -0.82714272 1.832893
0.025948843 -0.82643461 1.8306767
0.06065179 -0.82628566 1.8128953
-0.060867134 -0.77261531 1.816772
-0.022774141 -0.77203631 1.8334826
0.025653234 -0.77324986 1.8304073
0.059627738 -0.77399999 1.8135849
-0.061467413 -0.71799999 1.8161
-0.025354572 -0.72000003 1.8322725
0.024859924 -0.72000003 1.830412
0.05962773 -0.71999997 1.8132561
-0.061659142 -0.67547369 1.8157867
-0.025354572 -0.67500007 1.8319762
0.024859924 -0.67500007 1.830184
0.059627734 -0.67500001 1.8129823
-0.060827732 -0.62999994 1.816317
-0.025354564 -0.62999988 1.8316765
0.024859926 -0.62999994 1.8299518
0.059283361 -0.6307826 1.8132679
-0.060827732 -0.57599992 1.8159075
-0.025354568 -0.57600003 1.8313106
0.024859926 -0.57600003 1.8296762
0.05908411 -0.57599992 1.8141146
-0.060827725 -0.52200001 1.8154975
-0.025354566 -0.52199996 1.8309802
0.024859928 -0.5219999 1.8294009
0.058095053 -0.52294725 1.8145943
-0.060827732 -0.47700003 1.8151559
-0.02535457 -0.47700012 1.8307554
0.024859924 -0.47700015 1.8291682
0.057518106 -0.477 1.8147106
-0.059548602 -0.43199995 1.8163763
-0.02535457 -0.43199986 1.8305483
0.024859924 -0.43199992 1.8289653
0.057518106 -0.43200001 1.8141706
-0.060074762 -0.37728 1.8161632
-0.025032705 -0.37824333 1.8304553
0.024859926 -0.37800008 1.8286781
0.057518106 -0.37799999 1.8137354
-0.059993427 -0.32399997 1.8158351
-0.025354566 -0.32399982 1.8302993
0.024859926 -0.32399982 1.8284278
0.057518106 -0.324 1.8134458
-0.059993416 -0.27000001 1.8153046
-0.02535457 -0.27000013 1.8299799
0.024859924 -0.27000004 1.8281584
0.057518106 -0.27000001 1.8131566
-0.059993427 -0.22500001 1.8147969
-0.025354566 -0.22500002 1.8296683
0.024859924 -0.22500004 1.827974
0.057518106 -0.22499998 1.8129153
-0.059993416 -0.17999999 1.8142884
-0.025354564 -0.18000001 1.8293931
0.024859928 -0.17999999 1.827711
0.057518106 -0.17999999 1.8128247
-0.060283925 -0.126 1.8138585
-0.025354574 -0.12599997 1.8290387
0.024859926 -0.12599997 1.8274121
0.057286568 -0.1251 1.813096
-0.060429174 -0.072000012 1.8132482
-0.025354564 -0.071999989 1.8286967
0.024859928 -0.071999982 1.8270892
0.057187337 -0.072000004 1.8130161
-0.059707198 -0.027529415 1.8135597
-0.025354566 -0.027000008 1.8283845
0.024859924 -0.027000008 1.826851
0.057481281 -0.027000001 1.8127693
-0.058894977 0 1.8141901
-0.025354566 0 1.8282197
0.024859924 0 1.826759
0.057775225 0 1.8126215
-1.0274791 -7.0725007 1.863378
-0.97565186 -7.0739994 1.8653742
-0.92626977 -7.0739999 1.8653921
-0.87482983 -7.0739999 1.8654104
-0.82338995 -7.0740004 1.8654289
-0.77400762 -7.0740004 1.8654467
-0.72462529 -7.0739999 1.8719156
-0.67524314 -7.0739994 1.8666914
-0.62586087 -7.0739994 1.8655001
-0.5764786 -7.0739999 1.865518
-0.52503878 -7.0739999 1.8655366
-0.47359896 -7.0739999 1.8655548
-0.42421669 -7.0740004 1.8664442
-0.37483439 -7.0739999 1.8718545
-0.32545215 -7.0739994 1.8656107
-0.27606985 -7.0739999 1.8656305
-0.22668761 -7.0739999 1.8656499
-0.17524777 -7.0740004 1.8656714
-0.12380791 -7.0739994 1.8656934
-0.073884308 -7.0744867 1.8649389
0.039843321 -7.0734 1.865204
0.074619092 -7.0748572 1.8652825
0.1253456 -7.0739999 1.8658072
0.17436743 -7.0740004 1.8658282
0.22535011 -7.0740004 1.8658493
0.27633291 -7.0740004 1.8658692
0.32496259 -7.0734854 1.8680015
0.37437662 -7.0740004 1.8716074
0.42535928 -7.0739999 1.8659257
0.47634208 -7.0739999 1.8659439
0.52536404 -7.0739999 1.8659617
0.57438594 -7.0739999 1.8659793
0.62536865 -7.0740004 1.8659976
0.67635125 -7.0740004 1.8705213
0.72537321 -7.0739994 1.8686998
0.77439517 -7.0740004 1.8660505
0.82537776 -7.0739999 1.866069
0.8763606 -7.0740013 1.8660873
0.92538238 -7.0739999 1.8661046
0.9746629 -7.0735502 1.8658628
1.017079 -7.0721378 1.8650349
-1.0213783 -7.022892 1.8799909
-0.97565168 -7.0289993 1.8917845
-0.92626959 -7.0289989 1.8918023
-0.87482959 -7.0289998 1.891821
-0.82338983 -7.0289993 1.8918394
-0.77400756 -7.0290008 1.8918573
-0.72756469 -7.0354285 1.8930179
-0.67337257 -7.0298185 1.8921103
-0.62586087 -7.0289993 1.8919159
-0.57647854 -7.0289989 1.8919362
-0.52503878 -7.0289998 1.8919593
-0.47359887 -7.0289993 1.8919824
-0.42520067 -7.0293903 1.892131
-0.37113073 -7.0344 1.8934383
-0.32545209 -7.0289993 1.8920506
-0.27606988 -7.0289989 1.892073
-0.22668763 -7.0289989 1.8920959
-0.17524777 -7.0289998 1.8921198
-0.12380791 -7.0289993 1.8921434
-0.075409725 -7.0286074 1.8923954
0.037129715 -7.0279994 1.8904669
0.076323666 -7.0289989 1.8921968
0.12534559 -7.0289993 1.8922192
0.17436743 -7.0290003 1.8922418
0.22535013 -7.0289998 1.8922652
0.27633289 -7.0289989 1.8922887
0.32283372 -7.0302849 1.8926401
0.37805328 -7.0346255 1.8932998
0.42535943 -7.0289993 1.8923571
0.47634214 -7.0289998 1.8923806
0.52536404 -7.0289989 1.8924028
0.57438588 -7.0289993 1.8924245
0.62536871 -7.0289993 1.8924452
0.67201686 -7.0323148 1.8933055
0.72851068 -7.0307989 1.892944
0.77439505 -7.0289998 1.892503
0.82537788 -7.0289993 1.8925217
0.87636065 -7.0289993 1.8925399
0.92538232 -7.0289993 1.8925573
0.97865587 -7.0236812 1.8820831
1.0193433 -7.0262308 1.8895295
-1.0066837 -6.974999 1.8740416
0.98485202 -6.9745688 1.8763201
1.0234061 -6.9839993 1.8996997
-1.0066361 -6.9299984 1.8740412
0.98489636 -6.9299989 1.8773828
-1.0065833 -6.8759995 1.8740412
0.98494804 -6.8759995 1.8773829
-1.006537 -6.8220005 1.874246
0.98498964 -6.8219995 1.8773829
-1.0065069 -6.776999 1.8743488
0.98502219 -6.7769985 1.877383
-1.016724 -6.7277865 1.8792286
-0.9756518 -6.7139993 1.8953933
-0.92626959 -6.7139993 1.895352
-0.87482971 -6.7139993 1.8953092
-0.82338983 -6.7139993 1.8952659
-0.77400762 -6.7139993 1.8952241
-0.74314374 -6.7139993 1.8951982
-0.67112797 -6.7139997 1.8951416
-0.62586087 -6.7139993 1.8951063
-0.57647854 -6.7139993 1.8950677
-0.52503878 -6.7139993 1.8950282
-0.47359887 -6.7139993 1.8949876
-0.42627421 -6.7139997 1.8950489
-0.35425845 -6.7139997 1.8948948
-0.32545212 -6.7139993 1.8948727
-0.27606988 -6.7139993 1.8948339
-0.22668761 -6.7139993 1.8947958
-0.17524776 -6.7139993 1.8947558
-0.12380793 -6.7139993 1.8947153
-0.07442566 -6.7139993 1.8946772
0.036811247 -6.7199998 1.893437
0.076323666 -6.7139993 1.8945779
0.12534559 -6.7139993 1.8945395
0.17436743 -6.7139993 1.8945014
0.22535014 -6.7139993 1.8944619
0.27633289 -6.7139993 1.8944218
0.32143307 -6.7139997 1.894387
0.39398539 -6.7139993 1.894331
0.42535931 -6.7139993 1.8943064
0.47634214 -6.7139993 1.8942666
0.5253641 -6.7139993 1.8942289
0.57438594 -6.7139993 1.8941905
0.62536865 -6.7139993 1.8941511
0.66262525 -6.7140002 1.894122
0.73321676 -6.7140002 1.8940668
0.77439511 -6.7139993 1.8940349
0.82537788 -6.7139993 1.8939952
0.8763606 -6.7139993 1.8939555
0.92538244 -6.7139993 1.8939171
0.981107 -6.7273703 1.8787992
1.0207098 -6.7218747 1.8918729
-1.0262411 -6.6796989 1.8696904
-0.97565204 -6.6779995 1.8734869
-0.92626953 -6.677999 1.8734453
-0.87482983 -6.6780005 1.8734019
-0.82338977 -6.677999 1.8733584
-0.77400756 -6.677999 1.8733175
-0.72462535 -6.6779995 1.8796804
-0.67524314 -6.6779995 1.8746567
-0.62586087 -6.6779995 1.8731931
-0.57647866 -6.6779995 1.873152
-0.52503872 -6.6779995 1.8731095
-0.47359884 -6.6779995 1.873067
-0.42421666 -6.677999 1.8737863
-0.37483445 -6.6779995 1.8794074
-0.32545215 -6.677999 1.8729471
-0.27606988 -6.6779995 1.8729074
-0.22668761 -6.6779995 1.8728681
-0.17524776 -6.677999 1.8728274
-0.12380794 -6.6779995 1.8727875
-0.074461818 -6.6774998 1.8721831
0.038971025 -6.6768379 1.8706194
0.075692758 -6.6775498 1.8723987
0.12534557 -6.677999 1.8726338
0.17436744 -6.6779995 1.8725959
0.22535011 -6.6779995 1.8725562
0.27633291 -6.6779995 1.8725165
0.32535481 -6.6779995 1.8741441
0.37437665 -6.6779995 1.8785604
0.42535934 -6.677999 1.8724005
0.47634202 -6.6779995 1.8723611
0.52536398 -6.6779995 1.8723229
0.57438582 -6.6779995 1.8722848
0.62536854 -6.6779995 1.8722446
0.67635143 -6.6779995 1.8769751
0.72537315 -6.6779995 1.8750234
0.77439511 -6.6779995 1.8721284
0.82537776 -6.6779995 1.8720887
0.87636048 -6.6779995 1.8720492
0.92538249 -6.6779995 1.8720107
0.97516984 -6.6792865 1.8710741
1.0178319 -6.6791606 1.8699044
-1.0268071 -6.6419988 1.8509457
-0.9756518 -6.6419988 1.8509449
-0.92626959 -6.6419988 1.8508703
-0.87482971 -6.6419988 1.8507934
-0.82338983 -6.6419988 1.8507158
-0.77400762 -6.6419988 1.8506422
-0.72462535 -6.6419988 1.8578707
-0.67524314 -6.6419988 1.8521174
-0.62586087 -6.6419988 1.8504187
-0.57647854 -6.6419988 1.8503445
-0.52503878 -6.6419988 1.8502669
-0.47359887 -6.6419988 1.8501896
-0.42421663 -6.6419988 1.850944
-0.37483439 -6.6419988 1.8583361
-0.34808564 -6.6419997 1.8500009
0.34300268 -6.6419997 1.8594893
0.36849403 -6.6419992 1.8594946
0.68811661 -6.6419992 1.8592058
0.70968622 -6.6419997 1.8592119
-0.24109077 -4.9319997 1.8814709
-0.078540862 -4.9499998 1.8709533
0.064558387 -4.9499998 1.8787299
0.23123276 -4.9319997 1.8771384
-0.49211723 -4.8599997 1.8827909
0.42535937 -4.8779998 1.8807819
-1.2671782 -4.7239995 1.8726068
1.2432351 -4.7339997 1.8717204
1.2578228 -4.7159991 1.868556
-1.2845961 -4.6813331 1.8649561
-1.0394373 -4.6619997 1.8901689
1.2694227 -4.6807194 1.8656981
-1.3053712 -4.6184993 1.8626682
-1.2962662 -4.6394992 1.8574426
-0.98593986 -4.6439996 1.8782989
-0.93244231 -4.6259999 1.8677979
0.96656084 -4.6439996 1.8642539
1.2863622 -4.6279993 1.8614316
-1.3181403 -4.5733843 1.8563077
1.2973696 -4.5899992 1.8575642
1.3056397 -4.5674996 1.858022
-1.3321412 -4.5287995 1.8530163
1.3177748 -4.5269995 1.8539002
-1.3428731 -4.4909992 1.8500655
1.3259501 -4.4999995 1.8520682
-1.3043147 -3.8339996 1.8611312
-1.2517966 -3.8159993 1.8736155
1.2299632 -3.8159993 1.876025
1.2821761 -3.8339996 1.864892
-1.1750546 -3.7799997 1.8734266
-1.1454144 -3.779999 1.873119
1.1343408 -3.7718179 1.8735523
1.1771629 -3.7980001 1.8746628
-1.1575063 -3.7439997 1.8562131
1.1437681 -3.7439997 1.8557322
-1.3192496 -3.6539996 1.8574426
-1.2184031 -3.6539996 1.8500655
1.2989101 -3.6539996 1.86306
1.3078281 -3.6539996 1.8520682
-1.200291 -3.6359997 1.853754
-1.1969563 -3.6257138 1.8755343
1.1833246 -3.6266084 1.875008
-1.2117361 -3.5815136 1.8740907
1.1952084 -3.5909996 1.8764949
1.2043072 -3.5639994 1.8743573
-1.2296209 -3.5279996 1.8743485
1.2164252 -3.5279994 1.875273
-1.253683 -3.4560001 1.8749636
-1.2446661 -3.4829991 1.8729652
1.234434 -3.4745135 1.8754128
-1.2653675 -3.4210908 1.8706317
1.2467395 -3.4379997 1.8720535
1.2556762 -3.4114733 1.870195
-1.2807877 -3.3749995 1.8672786
1.2677927 -3.3755291 1.8665085
-1.3018638 -3.3119996 1.8629755
-1.2926326 -3.3395994 1.8638361
1.2828144 -3.3309469 1.8632528
-1.3131112 -3.2783997 1.8579346
1.2952667 -3.2939994 1.859396
1.30393 -3.2682853 1.8573024
-1.3312472 -3.2242496 1.8542151
1.3183329 -3.2255998 1.8549993
-1.3440741 -3.1859996 1.8500655
-1.321825 -2.8179996 1.8553935
1.2988596 -2.8079996 1.860312
1.3141706 -2.8259997 1.8557322
-1.2840159 -2.7737138 1.8688598
1.2733554 -2.7779996 1.8672125
-1.3178681 -2.5559998 1.8648198
-1.3155111 -2.5379996 1.853754
-1.2737372 -2.5235996 1.8714592
-1.2258742 -2.5039995 1.8905301
1.2275637 -2.5042496 1.8933803
1.281496 -2.5019996 1.86306
-1.2623521 -2.4839997 1.8500655
-1.223986 -2.4753911 1.8717773
-1.1899337 -2.4699998 1.8912833
1.1874861 -2.4689999 1.8938342
1.2242743 -2.4753602 1.8782567
1.2562705 -2.4659996 1.8545631
-1.2132058 -2.4439998 1.8571652
-1.1735626 -2.4299998 1.8742756
-1.1380415 -2.4254999 1.8958308
-0.9036361 -2.4119999 1.8989309
-0.87482971 -2.4120002 1.898993
-0.84396583 -2.4119999 1.8990664
0.83910394 -2.4119999 1.8985528
0.87636054 -2.4120002 1.8984317
0.91165626 -2.4119999 1.8983448
1.0900959 -2.448 1.8917124
1.1330369 -2.421 1.884849
1.1741215 -2.4295135 1.8779045
1.2156017 -2.4372001 1.8596169
-1.1649135 -2.3624995 1.8698915
-1.140602 -2.3843071 1.8832626
-0.86711377 -2.3872497 1.8953941
-0.83779299 -2.3939998 1.8964466
-0.79664111 -2.3579998 1.8912789
0.7900821 -2.3579998 1.8908005
0.83165264 -2.3849998 1.8946146
0.87380296 -2.3861737 1.8946767
0.90381283 -2.3939998 1.8957438
1.1283118 -2.3809087 1.8863763
1.1618707 -2.3731573 1.8676693
-1.2197793 -2.3126082 1.8741214
-1.1891708 -2.3399999 1.8755502
-0.81787544 -2.3169599 1.8852385
-0.77812284 -2.3181427 1.8859031
-0.7369709 -2.3039999 1.8959423
0.73089939 -2.3056364 1.8929206
0.77641189 -2.3199425 1.8852757
0.82001811 -2.3195999 1.8851171
1.1862611 -2.3309994 1.876883
1.21707 -2.3039994 1.8743851
-1.2579767 -2.2792497 1.8569814
-1.232847 -2.2749228 1.8865008
-0.85699725 -2.2830002 1.8802055
-0.82338977 -2.277 1.8793963
-0.77400756 -2.277 1.8794962
-0.72462535 -2.277 1.8866005
-0.67903346 -2.2746315 1.8971347
-0.62586087 -2.2679999 1.8974786
-0.57647866 -2.2679999 1.8975545
-0.52503878 -2.2679999 1.8976338
-0.47359893 -2.2679999 1.8977128
-0.42833185 -2.2679999 1.8977823
0.4253594 -2.2679999 1.8973651
0.47634214 -2.2679999 1.8972617
0.5253641 -2.2679999 1.897162
0.57438594 -2.2679999 1.8970615
0.62536865 -2.2679999 1.8969381
0.67729264 -2.2766402 1.8964276
0.72537327 -2.2770002 1.8816682
0.77439529 -2.2770002 1.8790265
0.82282007 -2.2781739 1.8790817
0.85283011 -2.286 1.8801479
1.2367514 -2.2844994 1.8792018
1.2586485 -2.2679996 1.868098
-1.2565377 -2.2499998 1.8519098
-1.2217585 -2.2349997 1.8684952
-1.1821364 -2.223 1.8870376
-0.96742147 -2.214 1.8630404
-0.94478798 -2.2319999 1.8909311
-0.81284469 -2.2398751 1.8740015
-0.7740075 -2.2319996 1.8729303
-0.72462547 -2.2319999 1.8730136
-0.67524314 -2.2319996 1.8783468
-0.62586093 -2.2319999 1.878618
-0.57647842 -2.2319999 1.8785188
-0.52503866 -2.2319996 1.8784158
-0.47359884 -2.2319999 1.8783135
-0.42833185 -2.2319999 1.8782547
-0.18128337 -2.2248001 1.8757517
0.1713507 -2.2236924 1.8766224
0.4253594 -2.2319999 1.8779144
0.47634217 -2.2320001 1.8779703
0.5253641 -2.2319999 1.8780488
0.57438582 -2.2319996 1.8781281
0.62536871 -2.2319996 1.8782098
0.67635143 -2.2320001 1.8763815
0.72537327 -2.2319996 1.8725812
0.77322936 -2.2329726 1.8726227
0.80969083 -2.2455001 1.8743577
0.93300807 -2.2320001 1.8797574
0.96263903 -2.214 1.8644543
1.1891036 -2.22 1.8941157
1.2252247 -2.2324865 1.8759029
1.2502971 -2.2499998 1.8758841
-1.2069353 -2.1959999 1.8517275
-1.1693811 -2.1818182 1.8671925
-1.1296468 -2.1710768 1.8871934
-0.76577723 -2.1959999 1.8676169
-0.72197986 -2.1882854 1.8664575
-0.67459631 -2.1785138 1.8649845
-0.62586081 -2.178 1.8648101
-0.57647854 -2.178 1.8646278
-0.52503878 -2.178 1.8644956
-0.47359896 -2.1779997 1.8644452
-0.42833188 -2.178 1.8644391
-0.26892883 -2.1695294 1.8660846
-0.23286039 -2.1689999 1.8652017
-0.15966883 -2.1792855 1.8856695
-0.14644146 -2.1599998 1.8984199
0.1443007 -2.1719999 1.8965478
0.15689783 -2.1829088 1.8770065
0.2282488 -2.1693914 1.8650882
0.26171544 -2.1698179 1.8657321
0.42535943 -2.1779997 1.8641279
0.47634214 -2.178 1.8641226
0.52536404 -2.178 1.8641673
0.57438594 -2.1780002 1.864288
0.62536854 -2.178 1.8644562
0.67404449 -2.1806469 1.8649077
0.72145158 -2.1899996 1.8663006
0.75870812 -2.1959999 1.8671906
1.1333073 -2.1651425 1.8917706
1.1725988 -2.1798947 1.8769915
1.2022638 -2.1959996 1.860129
-1.1546625 -2.142 1.8506259
-1.1199443 -2.1313331 1.864386
-1.0914384 -2.1329999 1.8851938
-0.96947914 -2.1059999 1.8619519
-0.92421204 -2.1059997 1.8989463
-0.87482965 -2.1059995 1.8989265
-0.82338983 -2.1059997 1.8989061
-0.77400762 -2.1059997 1.8988856
-0.72462535 -2.1059997 1.8988661
-0.67935824 -2.1059997 1.8661554
-0.62586087 -2.142 1.8594245
-0.57647854 -2.142 1.8593612
-0.52503872 -2.142 1.8593552
-0.47359893 -2.142 1.8593491
-0.42833179 -2.142 1.8593441
-0.15364303 -2.1374998 1.8784094
-0.13255268 -2.1262498 1.8866128
-0.07442566 -2.1059997 1.8782014
-0.027824704 -2.1059995 1.8945566
0.02408446 -2.1059992 1.8926749
0.076323666 -2.1059995 1.8727206
0.13800214 -2.1321819 1.8901225
0.15279782 -2.142 1.8616734
0.42760035 -2.1282854 1.8607601
0.47634214 -2.142 1.8590235
0.52850151 -2.1275997 1.8606949
0.57438594 -2.142 1.8590062
0.61752516 -2.142 1.8590529
0.67831224 -2.1059997 1.8744754
0.72537321 -2.1059997 1.8986336
0.77439511 -2.1059995 1.898614
0.82537782 -2.1059995 1.8985933
0.8763606 -2.1059995 1.8985727
0.92224503 -2.1059997 1.8948539
0.96067816 -2.1059999 1.8615447
1.0958136 -2.1307499 1.891284
1.1254154 -2.1271033 1.8719813
1.1542031 -2.142 1.8620014
-0.97342712 -2.0699999 1.8597186
-0.92421192 -2.0699997 1.898741
-0.87482971 -2.0699997 1.8987213
-0.82339001 -2.0699999 1.8987005
-0.77400762 -2.0699999 1.8986806
-0.72462535 -2.0699997 1.8986655
-0.67935836 -2.0699997 1.8659616
-0.10323198 -2.0879998 1.8576354
-0.067860954 -2.0768571 1.8797257
-0.024616575 -2.0689199 1.8943286
0.023116024 -2.0699999 1.8918782
0.076323688 -2.0699997 1.8714975
0.42830071 -2.0677497 1.8684572
0.47634205 -2.0609994 1.8726466
0.52757788 -2.0670962 1.8691384
0.55477715 -2.0609999 1.8727899
0.67831224 -2.0699999 1.8742716
0.72537315 -2.0699995 1.8984377
0.77439511 -2.0699999 1.8984207
0.82537782 -2.0699995 1.8983997
0.87636077 -2.0699999 1.8983794
0.92224497 -2.0699999 1.8946607
0.96444333 -2.0699997 1.8594785
-0.97340965 -2.0249996 1.8595383
-0.92421192 -2.0249999 1.8984845
-0.87482971 -2.0249996 1.8984649
-0.82338983 -2.0249999 1.8984437
-0.77400756 -2.0249999 1.8984259
-0.72462541 -2.0249999 1.8984219
-0.6793583 -2.0249996 1.8657198
-0.057964906 -2.0250001 1.8816767
-0.021361012 -2.0249994 1.8940376
0.023536049 -2.0248077 1.8902189
0.074362785 -2.0249996 1.8715963
0.42732024 -2.0249999 1.8836541
0.47634217 -2.0249999 1.883575
0.52536404 -2.0249999 1.883533
0.55477715 -2.0249999 1.8835195
0.67831212 -2.0249999 1.8740155
0.72537327 -2.0249999 1.8981842
0.77439523 -2.0249996 1.8981786
0.82537782 -2.0249999 1.8981583
0.87636054 -2.0249999 1.8981375
0.92224491 -2.0249999 1.8944193
0.964463 -2.0249996 1.8593173
-1.0094396 -1.9714282 1.8765882
-0.97339916 -1.9979999 1.8594307
-0.92421204 -1.9979999 1.8983303
-0.87482971 -1.9889998 1.8982593
-0.82338995 -1.989 1.8982388
-0.7740075 -1.9889998 1.8982296
-0.72636646 -1.9966152 1.8982697
-0.6793583 -1.9979999 1.8655748
-0.63203359 -1.971 1.8969344
-0.057964906 -1.9799999 1.8802147
-0.021938359 -1.9800003 1.892354
0.023938572 -1.9800001 1.8885549
0.074362785 -1.98 1.8696485
0.42732024 -1.98 1.8633295
0.47634208 -1.98 1.8632675
0.52536398 -1.98 1.8632121
0.55477715 -1.98 1.8631984
0.67831224 -1.9979998 1.8738619
0.72929496 -1.9934998 1.8980047
0.77439523 -1.9889997 1.8979779
0.8253777 -1.9889998 1.8979652
0.87541938 -1.9893599 1.8979468
0.92224503 -1.9979999 1.8942745
0.98742253 -1.9799994 1.8734505
1.0002141 -1.9709997 1.8539002
-1.0094289 -1.9349999 1.8755502
-0.97336406 -1.9079998 1.859071
-0.92421204 -1.9079998 1.8978175
-0.87482965 -1.9079996 1.8977988
-0.82339001 -1.9079996 1.8977948
-0.77400762 -1.9079996 1.8977946
-0.72462535 -1.9079996 1.8977941
-0.6793583 -1.9079998 1.867204
-0.63203359 -1.9349999 1.8975325
-0.055907309 -1.926 1.879297
-0.021938358 -1.9259998 1.8903108
0.023938574 -1.926 1.8867052
0.073093973 -1.9265294 1.868798
0.67831224 -1.9079996 1.8733505
0.72537327 -1.9079996 1.8975172
0.77439505 -1.9079996 1.8975167
0.82537782 -1.9079996 1.8975167
0.8763606 -1.9079996 1.8975098
0.92224503 -1.9079998 1.8937916
0.9874447 -1.9259998 1.8733433
1.0002484 -1.9349997 1.8539002
-0.97335017 -1.8720001 1.8589278
-0.92421216 -1.872 1.8976126
-0.87482971 -1.8720001 1.8976023
-0.82338989 -1.8720002 1.8976016
-0.77400756 -1.872 1.8976016
-0.72462535 -1.8720002 1.897601
-0.6793583 -1.872 1.8670899
-0.060022499 -1.872 1.8748136
-0.021938359 -1.8719996 1.8884437
0.023938574 -1.8719995 1.885022
0.071789116 -1.8725625 1.8682033
0.67831224 -1.8720002 1.8731452
0.72537333 -1.872 1.8973119
0.77439511 -1.8720001 1.8973117
0.82537782 -1.8720001 1.8973117
0.8763606 -1.8719999 1.8973101
0.92224497 -1.872 1.8935982
0.96452892 -1.8720001 1.8587703
-0.9723891 -1.8270001 1.8585688
-0.9242121 -1.827 1.8973613
-0.87482965 -1.8270001 1.8973603
-0.82338995 -1.827 1.89736
-0.77400756 -1.827 1.8973598
-0.72462535 -1.8270001 1.8973594
-0.67935836 -1.827 1.8669466
-0.01579399 -1.8273333 1.8566306
0.013347235 -1.8273336 1.8546878
0.68083334 -1.8282858 1.8747295
0.72537333 -1.827 1.897055
0.77439505 -1.8270001 1.8970549
0.82537776 -1.8269999 1.8970548
0.87636054 -1.8269999 1.8970546
0.92094469 -1.8274739 1.8951082
0.96454453 -1.8359998 1.8586413
-0.012957904 -1.7825146 1.855433
0.011504695 -1.7825143 1.8536832
-0.011308842 -1.7307689 1.8542869
0.0081204474 -1.7309999 1.852595
-0.0089289146 -1.6763998 1.8528117
0.0044230619 -1.6799998 1.8520067
-0.0055428445 -1.6222498 1.8514007
0.0031176805 -1.632 1.8505579
-0.0047258139 -1.5779999 1.8504299
-1.0268441 -7.0019994 1.9071587
-0.97565192 -7.0019994 1.9076308
-0.92626953 -7.0019994 1.9076487
-0.87482965 -7.0019994 1.9076697
-0.82338995 -7.0019994 1.907693
-0.77400762 -7.0019994 1.9077154
-0.7227549 -7.010181 1.9093002
-0.67818248 -7.0045705 1.9080938
-0.62586087 -7.0019994 1.9077839
-0.5764786 -7.0019994 1.9078064
-0.52503878 -7.0019994 1.9078299
-0.47359887 -7.0019994 1.9078536
-0.42247555 -7.0033841 1.9085743
-0.37747988 -7.0097141 1.9099797
-0.32545212 -7.0019994 1.9079218
-0.27606988 -7.0019994 1.9079443
-0.22668761 -7.0019994 1.907967
-0.17524776 -7.0019994 1.9079907
-0.12380791 -7.0019994 1.9080142
-0.07442566 -7.0019994 1.9080368
0.041027904 -7.0019999 1.9080261
0.076323666 -7.0019994 1.9080423
0.12534559 -7.0019994 1.9080648
0.17436743 -7.0019994 1.9080874
0.22535014 -7.0019994 1.9081109
0.27633291 -7.0019994 1.9081343
0.32888439 -7.005599 1.9084972
0.37181899 -7.0098252 1.9097414
0.42535937 -7.0019994 1.9082025
0.47634217 -7.0019994 1.9082259
0.52536404 -7.0019994 1.9082483
0.57438588 -7.0019994 1.9082712
0.62536865 -7.0019994 1.9082944
0.68046921 -7.0082994 1.9100564
0.72145152 -7.0064993 1.9093318
0.77439499 -7.0019994 1.9083627
0.82537788 -7.0019994 1.9083861
0.8763606 -7.0019994 1.9084096
0.92538238 -7.0019994 1.9084288
0.97440439 -7.0019994 1.9084464
1.0152333 -7.0019994 1.9078234
-1.0285515 -6.9749994 1.9167604
-0.97565192 -6.974999 1.9188614
-0.92626959 -6.9750004 1.9188643
-0.87482959 -6.974999 1.9188672
-0.82338995 -6.9749999 1.9188706
-0.77400762 -6.9749999 1.9188738
-0.72462529 -6.974999 1.9242258
-0.67524314 -6.974999 1.9199489
-0.62586087 -6.9749999 1.9188825
-0.57647866 -6.974999 1.9188856
-0.52503878 -6.9749994 1.9188887
-0.47359884 -6.9750004 1.9188918
-0.42421666 -6.974999 1.9194242
-0.37483439 -6.974999 1.9239287
-0.32545218 -6.974999 1.9189011
-0.27606991 -6.9750004 1.9189038
-0.2266876 -6.9749999 1.9189062
-0.17524777 -6.974999 1.9189099
-0.12380791 -6.974999 1.918913
-0.07540971 -6.9746089 1.9189821
0.038504995 -6.9756923 1.9166526
0.076323666 -6.9750004 1.9188476
0.12534559 -6.9749985 1.9188499
0.17436743 -6.9750009 1.9188532
0.22535016 -6.974999 1.9188565
0.27633286 -6.9749994 1.9188596
0.32535481 -6.9750004 1.9199324
0.37437662 -6.9749994 1.9233062
0.42535931 -6.9750004 1.9188684
0.47634214 -6.9749985 1.9188716
0.5253641 -6.9749999 1.9188749
0.57438588 -6.9749994 1.918878
0.62536865 -6.9750004 1.9188807
0.67635143 -6.9749994 1.9223033
0.72537333 -6.9749999 1.921003
0.77439511 -6.9749994 1.9188901
0.82537776 -6.974999 1.9188932
0.87636065 -6.9749994 1.918895
0.92538238 -6.9749999 1.9188956
0.97440439 -6.974999 1.918896
1.0179074 -6.9745708 1.9161606
-1.0263821 -6.9296575 1.922627
-0.97565186 -6.9299984 1.9264638
-0.92626953 -6.9299989 1.9264666
-0.87482971 -6.9299979 1.92647
-0.82338995 -6.9299989 1.926473
-0.7740078 -6.9299989 1.926476
-0.72462535 -6.9299989 1.9314812
-0.67524314 -6.9299989 1.927593
-0.62586093 -6.9299984 1.9264853
-0.57647854 -6.9299984 1.9264878
-0.52503872 -6.9299979 1.9264911
-0.47359884 -6.9299989 1.9264946
-0.42421666 -6.9299989 1.9271796
-0.37483442 -6.9299984 1.9314488
-0.32545215 -6.9299984 1.9265031
-0.27606976 -6.9299984 1.9265063
-0.2266876 -6.9299989 1.9265093
-0.17524776 -6.9299989 1.9265119
-0.12380791 -6.9299984 1.9265153
-0.07442566 -6.9299984 1.9265183
0.039643757 -6.9299998 1.9264852
0.076323666 -6.9299989 1.9264871
0.12534562 -6.9299989 1.9264899
0.17436743 -6.9299979 1.9264932
0.22535011 -6.9299979 1.926496
0.27633291 -6.9299989 1.9264996
0.32535481 -6.9299984 1.9277878
0.37437665 -6.9299979 1.9312778
0.42535934 -6.9299979 1.9265079
0.47634208 -6.9299989 1.9265091
0.5253641 -6.9299984 1.9265105
0.57438582 -6.9299989 1.9265113
0.62536865 -6.9299979 1.9265107
0.67635143 -6.9299989 1.9300507
0.72537321 -6.9299984 1.9287019
0.77439529 -6.9299979 1.9265074
0.82537794 -6.9299989 1.9265054
0.87636065 -6.9299989 1.9265027
0.92538249 -6.9299989 1.9265014
0.97538173 -6.9295788 1.9245173
1.0182048 -6.9305282 1.9228253
-1.0244471 -6.8760028 1.9288865
-0.97565186 -6.8760009 1.9346595
-0.92626953 -6.8760014 1.934657
-0.87482959 -6.8760009 1.9346545
-0.82338983 -6.8760009 1.9346519
-0.77400762 -6.8760014 1.9346491
-0.72462529 -6.8760009 1.9398596
-0.67524296 -6.8760014 1.9358029
-0.62586093 -6.8760014 1.934642
-0.5764786 -6.8760009 1.9346392
-0.52503872 -6.8760009 1.9346366
-0.47359896 -6.8760009 1.9346339
-0.42421663 -6.8760004 1.9352055
-0.37483436 -6.8760014 1.9399809
-0.32545215 -6.8760004 1.9346267
-0.27606988 -6.8760009 1.934624
-0.2266876 -6.8760009 1.9346216
-0.17524773 -6.8760018 1.9346185
-0.12380788 -6.8760014 1.9346161
-0.07442566 -6.8760009 1.9346137
0.039643757 -6.8749409 1.9347249
0.076323658 -6.8760009 1.9346036
0.1253456 -6.8760009 1.9345992
0.17436746 -6.8760018 1.934593
0.22535011 -6.8760009 1.9345875
0.27633286 -6.8760009 1.9345804
0.32535484 -6.8760004 1.9362932
0.37437665 -6.8760009 1.9396781
