# .PCD v0.7 - Point Cloud Data file format
VERSION 0.7
FIELDS x y z
SIZE 4 4 4
TYPE F F F
COUNT 1 1 1
WIDTH 1532
HEIGHT 1
VIEWPOINT 0 0 0 1 0 0 0
POINTS 1532
DATA ascii
-0.72488338 -1.1800002 1.4296851
-0.67607296 -1.1819515 1.4300513
-0.64163947 -1.1966667 1.4328108
0.64185053 -1.1966667 1.4328108
0.67608356 -1.1819514 1.4300508
0.72460973 -1.1800002 1.429685
0.77446842 -1.1804653 1.4297725
0.82541579 -1.1795455 1.4295996
0.87513202 -1.1804547 1.4297704
0.92615056 -1.179535 1.4295979
0.97584355 -1.1800002 1.4296852
1.0246404 -1.1805003 1.4297792
1.0737048 -1.1795124 1.4295937
1.1238681 -1.180488 1.4297767
1.180586 -1.1806782 1.4233981
-1.1781563 -1.1302855 1.4169708
-1.1244538 -1.1304001 1.4203833
-1.0757366 -1.1300002 1.4203084
-1.0247539 -1.1300002 1.4203084
-0.97437376 -1.13 1.4203084
-0.92445892 -1.1296554 1.4202436
-0.87437236 -1.1303705 1.420378
-0.82612592 -1.13 1.4203084
-0.77562511 -1.1300002 1.4203084
-0.72488326 -1.13 1.4203085
-0.68978596 -1.1340001 1.4210585
0.68971682 -1.1340001 1.4210585
0.72403133 -1.1303451 1.420373
0.77551514 -1.1296552 1.4202436
0.82526284 -1.13 1.4203084
0.87594926 -1.1300002 1.4203082
0.92545372 -1.1303449 1.420373
0.97636288 -1.13 1.4203084
1.024763 -1.1300001 1.4203084
1.0729201 -1.1296297 1.4202387
1.1237478 -1.1300001 1.4203084
1.1790106 -1.1305883 1.4169283
-1.1754469 -1.080889 1.409721
-1.1241696 -1.0805265 1.4110296
-1.075281 -1.0795125 1.4108394
-1.0247538 -1.0800002 1.4109309
-0.97421283 -1.0800003 1.4109309
-0.92352259 -1.0804653 1.411018
-0.87539721 -1.0795001 1.4108371
-0.82566547 -1.0804548 1.4110162
-0.77550441 -1.0800002 1.4109308
-0.72480285 -1.0800002 1.4109309
-0.67674881 -1.0763159 1.4102399
-0.62797976 -1.0657144 1.4082518
-0.5932681 -1.0600001 1.40718
0.59543824 -1.0600001 1.40718
0.62827027 -1.0657144 1.4082518
0.67675561 -1.076316 1.4102399
0.72532874 -1.0800003 1.4109309
0.77493668 -1.0800004 1.4109309
0.82470369 -1.0800002 1.4109309
0.87505585 -1.0804547 1.4110161
0.92622852 -1.0795351 1.4108437
0.97656238 -1.0800002 1.4109309
1.0251931 -1.08 1.4109309
1.0739505 -1.080488 1.4110223
1.1242034 -1.0795003 1.4108373
1.1760265 -1.0813638 1.409779
-1.172426 -1.0400001 1.4031761
-1.1256348 -1.0400001 1.403429
-1.0765804 -1.0400001 1.4034289
-1.0252359 -1.0400001 1.4034292
-0.97461474 -1.0400001 1.4034292
-0.92471659 -1.0400001 1.4034292
-0.87505972 -1.0400001 1.403429
-0.82588476 -1.0400001 1.4034289
-0.77550465 -1.0400001 1.4034292
-0.72488338 -1.0400001 1.4034294
-0.67257482 -1.0400001 1.4034292
-0.62364084 -1.0400001 1.4034292
-0.57470697 -1.0400001 1.4034292
-0.54770899 -1.0400001 1.4034294
0.57698512 -1.0400001 1.403429
0.62395662 -1.0400001 1.4034289
0.67284536 -1.0400001 1.403429
0.72460997 -1.0400001 1.403429
0.77493644 -1.0400001 1.403429
0.82646149 -1.0400001 1.403429
0.87487084 -1.0400001 1.4034292
0.92447847 -1.0400001 1.4034292
0.97480518 -1.0400001 1.403429
1.0237308 -1.0400001 1.403429
1.0733016 -1.0400001 1.4034292
1.1230935 -1.0400001 1.4034292
1.172618 -1.0400001 1.4031761
-0.44309181 -0.84000003 1.4013454
0.44445831 -0.84000003 1.4013454
-1.1843511 -5.2699995 1.4769001
1.1853653 -5.2699995 1.4769009
-1.184351 -5.23 1.4769003
1.1853653 -5.2300005 1.4769012
-1.1909145 -5.1795106 1.4761984
1.1912345 -5.1795106 1.476199
-1.1939614 -5.1300001 1.4758724
1.1939601 -5.1300001 1.4758732
-1.1939616 -5.0800004 1.4758726
1.1939596 -5.0800004 1.475873
-1.1939615 -5.0299993 1.4758723
1.1939601 -5.0299993 1.475873
-1.1939617 -4.9800005 1.4758726
1.1939597 -4.98 1.4758732
-1.1939615 -4.9299998 1.4758723
1.1939601 -4.9299998 1.4758731
-1.1939617 -4.8800001 1.4758728
1.1939596 -4.8799996 1.4758731
-1.1939615 -4.8299985 1.4758723
1.1939601 -4.8299994 1.4758732
-1.1939617 -4.7799997 1.4758724
1.1939595 -4.7799997 1.475873
-1.1939615 -4.73 1.4758722
1.1939601 -4.7299995 1.4758732
-1.1939615 -4.6799989 1.4758726
1.1939595 -4.6799994 1.475873
-1.1939615 -4.6300006 1.4758723
1.1939601 -4.6300006 1.475873
-1.1939617 -4.5800004 1.4758723
1.1939595 -4.5800009 1.475873
-1.1939615 -4.5299997 1.4758723
1.1939601 -4.5299993 1.4758732
-1.1939616 -4.4800005 1.4758725
1.1939597 -4.4800005 1.475873
-1.1939615 -4.4299998 1.4758724
1.1939602 -4.4299998 1.4758731
-1.1939617 -4.3799996 1.4758726
1.19396 -4.3799996 1.475873
-1.1939615 -4.329999 1.4758724
1.1939603 -4.329999 1.4758731
-1.1939615 -4.2799997 1.4758726
1.1939597 -4.2799997 1.4758731
-1.1939614 -4.23 1.4758723
1.1939602 -4.2299995 1.4758732
-1.1939616 -4.1799989 1.4758726
1.1939595 -4.1799994 1.4758732
-1.1939615 -4.1300001 1.4758723
1.1939603 -4.1300001 1.4758731
-1.1939616 -4.0800004 1.4758724
1.1939596 -4.0800004 1.4758731
-1.1939615 -4.0299997 1.475872
1.1939602 -4.0299997 1.4758731
-1.1939613 -3.9800005 1.4758725
1.1939598 -3.9800005 1.4758732
-1.1939613 -3.9300001 1.4758723
1.1939603 -3.9300003 1.4758731
-1.1939615 -3.8800001 1.4758725
1.1939602 -3.8800001 1.475873
-1.1939613 -3.8299994 1.4758722
1.1939603 -3.8299994 1.475873
-1.1939615 -3.78 1.4758725
1.1939601 -3.7800002 1.4758732
-1.1939613 -3.73 1.4758723
1.1939604 -3.73 1.4758731
-1.1939616 -3.6799996 1.4758724
1.1939602 -3.6799996 1.4758732
-1.1939615 -3.6300004 1.4758724
1.1939608 -3.6300006 1.475873
-1.1939614 -3.5799999 1.4758726
1.1939602 -3.5799999 1.475873
-1.1939614 -3.53 1.4758723
1.1939604 -3.53 1.4758731
-1.193961 -3.4800005 1.4758726
1.1939603 -3.4800012 1.475873
-1.1939611 -3.4300001 1.4758724
1.1939603 -3.4300001 1.4758732
-1.1939615 -3.3800006 1.4758725
1.1939602 -3.3799999 1.4758728
-1.1939613 -3.3299994 1.4758722
1.1939603 -3.3299992 1.475873
-1.1939615 -3.2800002 1.4758723
1.1939601 -3.2800002 1.475873
-1.1939614 -3.2300003 1.4758724
1.1939602 -3.2300003 1.4758732
-1.1939615 -3.1799998 1.4758726
1.1939601 -3.1799998 1.475873
-1.1939614 -3.1299999 1.4758723
1.1939603 -3.1299999 1.4758731
-1.1939616 -3.0799997 1.4758726
1.1939601 -3.0799997 1.4758731
-1.1939613 -3.0300002 1.4758724
1.1939603 -3.03 1.4758734
-1.1939615 -2.9800005 1.4758724
1.1939601 -2.9800003 1.4758732
-1.1939614 -2.9299998 1.4758723
1.1939608 -2.9299998 1.4758731
-1.1939615 -2.8799999 1.4758725
1.1939608 -2.8799999 1.475873
-1.1939614 -2.8299997 1.4758723
1.1939611 -2.8299997 1.475873
-1.1939615 -2.7800002 1.4758725
1.1939613 -2.7800002 1.4758729
-1.1939615 -2.7300007 1.4758723
1.193961 -2.7300007 1.475873
-1.1939616 -2.6799998 1.4758726
1.1939611 -2.6799998 1.4758731
-1.1939614 -2.6299996 1.4758724
1.1939614 -2.6299996 1.4758731
-1.1939611 -2.5799997 1.4758726
1.1939613 -2.5799997 1.4758731
-1.1939614 -2.5300004 1.4758723
1.1939613 -2.5300002 1.4758732
-1.1939611 -2.4800003 1.4758725
1.1939611 -2.48 1.475873
-1.193961 -2.4299991 1.4758722
1.1939611 -2.4299991 1.4758731
-1.1939614 -2.3800001 1.4758726
1.1939611 -2.3800001 1.475873
-1.1939609 -2.3299999 1.4758723
1.1939609 -2.3299999 1.4758732
-1.1939604 -2.28 1.4758725
1.1939608 -2.28 1.475873
-1.193961 -2.2300007 1.4758724
1.1939611 -2.2300007 1.4758731
-1.1939607 -2.1799998 1.4758724
1.1939611 -2.1799996 1.4758732
-1.1939609 -2.1299994 1.4758722
1.1939613 -2.1299994 1.4758731
-1.1939608 -2.0799999 1.4758724
1.1939614 -2.0799999 1.4758731
-1.1939605 -2.0300004 1.4758722
1.1939613 -2.0300004 1.4758731
-1.1939604 -1.9799999 1.4758724
1.1939615 -1.9799999 1.4758731
-1.1939605 -1.9299995 1.4758724
1.1939614 -1.9299995 1.475873
-1.1939607 -1.8800004 1.4758726
1.1939615 -1.8800004 1.475873
-1.1939605 -1.8299999 1.4758724
1.1939611 -1.83 1.4758732
-1.1939602 -1.7799999 1.4758725
1.1939615 -1.7799997 1.4758732
-1.1939605 -1.7300004 1.4758723
1.1939611 -1.7300004 1.475873
-1.1939604 -1.6800003 1.4758724
1.1939616 -1.6800001 1.4758728
-1.1939605 -1.6299999 1.4758722
1.1939614 -1.6299999 1.4758734
-1.1939604 -1.58 1.4758725
1.1939611 -1.5800002 1.475873
-1.1804688 -1.5241935 1.4853146
-1.124791 -1.5205004 1.4935437
-1.075465 -1.5195352 1.4933625
-1.0353603 -1.517895 1.4930547
-0.98305172 -1.5176926 1.493017
0.94772458 -1.5000001 1.4896989
0.97708189 -1.5195004 1.4933561
1.038648 -1.5146669 1.4924494
1.0732292 -1.5204654 1.4935371
1.1236284 -1.5200003 1.4934499
1.1804873 -1.5241935 1.4853145
-1.183965 -1.4760002 1.4757373
-1.1244785 -1.4703704 1.4841417
-1.0751342 -1.4700001 1.4840723
-1.0254689 -1.4696553 1.4840076
-0.97001272 -1.467273 1.483561
-0.94231361 -1.4657145 1.4832686
0.94395012 -1.4675002 1.4836035
0.97215843 -1.466957 1.4835016
1.0248299 -1.4703704 1.4841418
1.0736612 -1.4700001 1.4840723
1.1237479 -1.4700001 1.4840723
1.1839393 -1.476 1.4757377
-1.1773556 -1.4230769 1.4716216
-1.1242286 -1.42 1.474695
-1.0756967 -1.42 1.4746952
-1.0254714 -1.4204651 1.4747822
-0.97461474 -1.4199998 1.4746952
-0.93482083 -1.4166666 1.4740702
0.93494934 -1.4176924 1.4742621
0.97616678 -1.4200002 1.4746951
1.0250599 -1.4200003 1.4746948
1.0733016 -1.42 1.474695
1.1237081 -1.4200001 1.4746953
1.1779687 -1.4231373 1.4715613
-1.1797105 -1.3745004 1.4630687
-1.124272 -1.3700006 1.4653186
-1.0754956 -1.3700006 1.4653186
-1.0246543 -1.3703454 1.4653832
-0.9752174 -1.3700005 1.4653186
-0.92543983 -1.3692863 1.4651846
-0.88855863 -1.3600001 1.4634429
0.89068776 -1.3600001 1.4634429
0.92687511 -1.3692863 1.4651846
0.97543311 -1.3703454 1.4653832
1.0250783 -1.3696302 1.4652491
1.0736611 -1.3700006 1.4653186
1.1241075 -1.3700006 1.4653186
1.1805068 -1.3748722 1.4630594
-1.1738037 -1.3209522 1.4557734
-1.1247911 -1.3205261 1.4560393
-1.0763395 -1.3199998 1.4559406
-1.0258639 -1.3195348 1.4558535
-0.97446138 -1.3204544 1.456026
-0.92414725 -1.3195453 1.4558553
-0.87510103 -1.3199999 1.4559406
-0.83027935 -1.3092306 1.4539212
-0.79575306 -1.3000001 1.4521903
0.79506713 -1.3000001 1.4521899
0.82903767 -1.3074998 1.4535967
0.87558973 -1.3199998 1.4559407
0.92568773 -1.3204544 1.456026
0.97663301 -1.3195348 1.4558533
1.0245049 -1.3199998 1.4559405
1.0728222 -1.3199998 1.4559406
1.1236283 -1.3199998 1.4559406
1.1743954 -1.3214632 1.4558607
-1.1843288 -5.2699995 1.5253805
1.1853443 -5.2699995 1.5248761
-1.1843288 -5.23 1.5253804
1.1853443 -5.23 1.5248758
-1.1932225 -5.1799994 1.526222
1.193139 -5.1804991 1.5257785
-1.1939615 -5.1299996 1.5263906
1.1939602 -5.1300001 1.5263909
-1.1939617 -5.0800009 1.5263898
1.1939596 -5.0800004 1.5263911
-1.1939615 -5.0299993 1.5263903
1.1939603 -5.0299993 1.5263909
-1.1939617 -4.9800005 1.52639
1.1939597 -4.9800005 1.5263911
-1.1939615 -4.9300003 1.5263901
1.1939603 -4.9299998 1.5263909
-1.1939617 -4.8799996 1.5263903
1.1939598 -4.8800001 1.5263909
-1.1939615 -4.829999 1.5263902
1.1939601 -4.829999 1.5263909
-1.1939617 -4.7799997 1.5263902
1.1939597 -4.7799997 1.526391
-1.1939615 -4.73 1.5263906
1.1939603 -4.7299995 1.5263908
-1.1939616 -4.6799984 1.5263902
1.1939596 -4.6799984 1.5263913
-1.1939615 -4.6300001 1.5263902
1.1939602 -4.6300001 1.5263909
-1.1939617 -4.5800004 1.5263902
1.1939597 -4.5800004 1.526391
-1.1939614 -4.5299997 1.5263906
1.1939601 -4.5299997 1.5263911
-1.1939616 -4.48 1.5263903
1.1939596 -4.4800005 1.5263911
-1.1939615 -4.4299998 1.5263906
1.1939602 -4.4299998 1.5263909
-1.1939617 -4.3799996 1.5263902
1.1939596 -4.3799996 1.5263909
-1.1939615 -4.329999 1.5263903
1.1939602 -4.329999 1.5263908
-1.1939617 -4.2800002 1.5263901
1.1939596 -4.2799997 1.5263909
-1.1939615 -4.2299995 1.5263903
1.1939601 -4.2299995 1.5263907
-1.1939617 -4.1799994 1.5263903
1.1939596 -4.1799984 1.5263909
-1.1939615 -4.1300001 1.5263903
1.1939604 -4.1300001 1.5263908
-1.1939617 -4.0799994 1.5263903
1.1939597 -4.0799999 1.5263909
-1.1939615 -4.0299997 1.5263902
1.1939604 -4.0299997 1.5263909
-1.1939616 -3.9800005 1.5263902
1.1939597 -3.9800005 1.5263909
-1.1939614 -3.9300001 1.5263903
1.1939603 -3.9300001 1.5263911
-1.1939617 -3.8800001 1.5263902
1.1939602 -3.8800001 1.526391
-1.1939615 -3.8299992 1.5263903
1.1939604 -3.8299994 1.5263909
-1.1939617 -3.78 1.5263901
1.1939602 -3.7800004 1.5263911
-1.1939614 -3.7300005 1.5263902
1.1939603 -3.7300005 1.5263909
-1.1939614 -3.6799998 1.5263902
1.1939598 -3.6800001 1.526391
-1.1939613 -3.6299999 1.5263902
1.1939603 -3.6300001 1.5263909
-1.1939613 -3.5799999 1.5263902
1.19396 -3.5799999 1.5263909
-1.1939613 -3.53 1.5263902
1.1939604 -3.53 1.5263909
-1.1939616 -3.4800005 1.5263902
1.1939597 -3.48 1.5263909
-1.1939613 -3.4299998 1.5263902
1.1939603 -3.4299998 1.5263908
-1.1939617 -3.3800001 1.5263904
1.19396 -3.3799999 1.5263909
-1.1939614 -3.3299994 1.5263903
1.1939603 -3.3299994 1.5263909
-1.1939615 -3.2800004 1.52639
1.19396 -3.2800004 1.5263908
-1.1939615 -3.2300007 1.5263901
1.1939604 -3.23 1.5263908
-1.1939609 -3.1800001 1.5263901
1.19396 -3.1800001 1.526391
-1.1939614 -3.1299999 1.5263903
1.1939604 -3.1299996 1.5263908
-1.1939614 -3.0799997 1.5263902
1.1939601 -3.0799999 1.5263908
-1.1939613 -3.0300002 1.5263903
1.1939605 -3.0300002 1.5263909
-1.1939613 -2.9800003 1.5263902
1.19396 -2.9800003 1.5263911
-1.1939609 -2.9300001 1.5263902
1.1939608 -2.9299998 1.5263909
-1.1939611 -2.8800001 1.5263898
1.1939604 -2.8800001 1.5263911
-1.1876714 -2.8210807 1.5333612
-1.1112921 -2.8000002 1.5498379
1.1121249 -2.8000002 1.5498379
1.1876305 -2.8210807 1.5333618
-1.1894652 -2.7774076 1.5324974
-1.1197289 -2.7700005 1.5483431
1.1205126 -2.7700005 1.5483428
1.1895328 -2.7774076 1.532498
-1.1864445 -2.7250001 1.5352267
-1.1231039 -2.7000005 1.544856
1.1221901 -2.7000005 1.5448558
1.1865937 -2.7249997 1.5352274
-1.1894197 -2.6767344 1.5295043
-1.1244538 -2.6700001 1.5433609
1.1231968 -2.6700001 1.5433609
1.189355 -2.6767354 1.5295053
-1.1873715 -2.6254544 1.5318409
-1.124791 -2.6199996 1.5408696
1.1250981 -2.6199996 1.5408696
1.1871357 -2.6254547 1.5318416
-1.1896697 -2.5768182 1.5264859
-1.1247909 -2.5700004 1.5383787
1.1255453 -2.5700004 1.5383787
1.1898061 -2.5768182 1.5264863
-1.1867853 -2.5246153 1.5281113
-1.1256909 -2.5200002 1.5358876
1.1256572 -2.5200002 1.5358875
1.1869303 -2.5246155 1.5281119
-1.1898311 -2.4770002 1.5236723
-1.1271535 -2.48 1.5338948
1.1265519 -2.48 1.5338947
1.1897268 -2.4770002 1.5236729
-1.1889625 -2.4303443 1.5235177
-1.1264784 -2.4200001 1.5309049
1.1264772 -2.4200001 1.5309051
1.188802 -2.4303441 1.5235183
-1.1842744 -2.3774467 1.5225809
-1.1266189 -2.3783338 1.5288292
1.1273628 -2.3783338 1.5288292
1.1843113 -2.3774469 1.5225817
-1.1766508 -2.3226414 1.5233612
-1.1270921 -2.3199999 1.5263524
1.1283735 -2.3205714 1.5263711
1.1779097 -2.3223534 1.5232316
-1.1803161 -2.274091 1.5200955
-1.1270653 -2.2695658 1.524727
1.1267852 -2.2695653 1.5247267
1.1803747 -2.2740912 1.5200962
-1.1784282 -2.2300003 1.5202727
-1.1269003 -2.2300007 1.5234512
1.1265239 -2.2300005 1.523451
1.1785823 -2.2300005 1.5202729
-1.1780335 -2.1807404 1.5190424
-1.1272995 -2.1794596 1.5218216
1.1266788 -2.1794596 1.5218216
1.1781249 -2.1807408 1.5190428
-1.1759231 -2.122174 1.5181305
-1.1264786 -2.1199996 1.5199047
1.1264485 -2.1199999 1.5199045
1.1758655 -2.1221738 1.5181308
-1.1795582 -2.0740547 1.5156375
-1.1247911 -2.0700006 1.5182925
-1.0994806 -2.0600002 1.5179698
1.0970269 -2.0600002 1.5179698
1.1251858 -2.0700006 1.5182925
1.1794165 -2.0740542 1.5156376
-1.1744411 -2.0217023 1.5155605
-1.1233634 -2.0200005 1.5166801
-1.0957308 -2.0155556 1.5165365
1.0931126 -2.0133336 1.5164648
1.123868 -2.02 1.51668
1.176187 -2.0218182 1.5154846
-1.1776434 -1.9735132 1.5134584
-1.1240121 -1.9699999 1.5150675
-1.0918107 -1.9690913 1.5150383
1.0910623 -1.968889 1.5150316
1.12231 -1.9699999 1.5150673
1.1778042 -1.9735136 1.513459
-1.1755155 -1.9299998 1.5127808
-1.1245315 -1.9299997 1.5137781
-1.0884564 -1.9293334 1.5137564
1.087736 -1.9292309 1.5137532
1.1227891 -1.9299999 1.5137776
1.1756989 -1.9299996 1.5127807
-1.1756614 -1.8804258 1.5114702
-1.1322354 -1.8811765 1.5122037
-1.0841815 -1.8786675 1.5121226
1.0834823 -1.8785189 1.5121177
1.1277263 -1.8809999 1.5121981
1.1756239 -1.8804259 1.5114702
-1.1740849 -1.8299999 1.5100203
-1.1363617 -1.8285714 1.5105075
-1.065733 -1.8199999 1.5102309
1.066831 -1.8199999 1.5102309
1.1370486 -1.8285714 1.5105073
1.1740227 -1.83 1.5100204
-1.1746873 -1.7799995 1.5086385
-1.1294441 -1.7775751 1.5088633
-1.0662329 -1.7829626 1.5090369
-1.0436438 -1.7745453 1.5087657
1.0429257 -1.7725 1.5086989
1.0656009 -1.7826663 1.5090272
1.1298666 -1.7775751 1.5088631
1.1744624 -1.7799997 1.5086386
-1.1730492 -1.7205006 1.5069363
-1.124256 -1.7204882 1.5070231
-1.0741699 -1.7190001 1.5069748
-1.0348601 -1.7170373 1.5069116
1.0343982 -1.7166671 1.5068998
1.0706238 -1.7191306 1.5069791
1.1253059 -1.7200003 1.5070074
1.1736504 -1.7210261 1.5069511
-1.1731418 -1.6710346 1.5053725
-1.1234931 -1.6700001 1.5053946
-1.0891154 -1.6685715 1.5053482
-1.0277305 -1.6704348 1.5054084
1.0256301 -1.6696 1.5053816
1.0825741 -1.6692308 1.5053697
1.123058 -1.6703449 1.5054058
1.1741554 -1.6707144 1.5053602
-1.171953 -1.6204996 1.5038168
-1.1241421 -1.6199995 1.5037814
-1.0805445 -1.6177773 1.5037099
-1.0159556 -1.6221427 1.5038509
-0.99430084 -1.6066667 1.503352
0.99357778 -1.6133336 1.5035671
1.017343 -1.6221428 1.5038511
1.0777097 -1.6175755 1.503704
1.1225096 -1.6199996 1.503782
1.1720043 -1.6204996 1.503817
-1.1710252 -1.5704002 1.501753
-1.1251805 -1.5700003 1.5017221
-1.0758573 -1.5700004 1.5017222
-1.0222363 -1.5755556 1.5021501
-0.99148858 -1.5800002 1.5024929
0.99301863 -1.5800002 1.5024929
1.0228418 -1.5755556 1.5021502
1.0736612 -1.5700004 1.5017221
1.1231487 -1.5700004 1.5017221
1.1712419 -1.5704002 1.5017526
-1.1688139 -5.27 1.5599884
-1.1247911 -5.27 1.5617568
-1.0758573 -5.2699995 1.5617998
-1.032998 -5.2720003 1.5618137
-0.96409351 -5.2682357 1.563916
-0.92399335 -5.269999 1.5618223
-0.87505978 -5.27 1.5618223
-0.8261258 -5.269999 1.5618223
-0.77550447 -5.27 1.5618223
-0.72488344 -5.269999 1.5618223
-0.67426205 -5.2699995 1.5618223
-0.62364089 -5.269999 1.5618223
-0.57470703 -5.2700005 1.5618223
-0.52577311 -5.2699995 1.5618223
-0.4751519 -5.2699995 1.5618223
-0.42453068 -5.2699995 1.5618223
-0.37390938 -5.2699995 1.5618223
-0.32497555 -5.27 1.5618223
-0.27604166 -5.2699995 1.5618223
-0.22391915 -5.2699995 1.5618222
-0.17516708 -5.27 1.5618217
-0.12408864 -5.2699995 1.5618217
-0.074102752 -5.269999 1.5618217
-0.025185844 -5.2699995 1.5618217
0.02411495 -5.269999 1.5618217
0.07430461 -5.2699995 1.5618217
0.12402596 -5.269999 1.5618217
0.17496793 -5.27 1.5618217
0.22167347 -5.269999 1.5618221
0.27502534 -5.2699995 1.5618223
0.32535198 -5.2699995 1.5618223
0.37567857 -5.2699995 1.5618223
0.42600518 -5.2699995 1.5618223
0.47633186 -5.269999 1.5618223
0.5249809 -5.2699995 1.5618223
0.57362998 -5.2699995 1.5618223
0.62395662 -5.27 1.5618223
0.67428321 -5.2699995 1.5618223
0.72460973 -5.2699995 1.5618223
0.77493644 -5.2699995 1.5618223
0.82526308 -5.27 1.5618223
0.87558961 -5.2699995 1.5618223
0.92591649 -5.27 1.5618223
0.9669233 -5.2677784 1.5618219
1.0293146 -5.2718182 1.5618148
1.0735413 -5.27 1.5618
1.1248263 -5.2700005 1.561758
1.1703867 -5.27 1.5600276
-1.1695348 -5.2194591 1.5609708
-1.1247911 -5.2200003 1.5620995
-1.0759343 -5.2204552 1.5621136
-1.0270767 -5.2200007 1.5621659
-0.97407776 -5.2195458 1.5621501
-0.92399335 -5.2200007 1.5621436
-0.87505984 -5.2200003 1.5621434
-0.82612592 -5.2200003 1.5621436
-0.77550453 -5.2200007 1.5621433
-0.72488338 -5.2200003 1.5621434
-0.67426211 -5.2200007 1.5621434
-0.62364084 -5.2200007 1.5621434
-0.57470697 -5.2200003 1.5621434
-0.52577311 -5.2200007 1.5621434
-0.47515187 -5.2200007 1.5621436
-0.42453057 -5.2200007 1.5621434
-0.37390938 -5.2200007 1.5621434
-0.32497555 -5.2200007 1.5621436
-0.27604157 -5.2200007 1.5621436
-0.22391915 -5.2200007 1.5621433
-0.17508715 -5.2200007 1.5621427
-0.12420388 -5.2204714 1.5621277
-0.074304953 -5.2197571 1.5621505
-0.025186315 -5.2200007 1.5621427
0.024114469 -5.2200007 1.5621425
0.07422702 -5.2200007 1.5621431
0.12423259 -5.2200007 1.5621424
0.17488757 -5.2200003 1.5621431
0.22167352 -5.2200003 1.5621431
0.2750254 -5.2200007 1.5621433
0.32535201 -5.2200003 1.5621433
0.37567863 -5.2200007 1.5621434
0.42600518 -5.2200007 1.5621436
0.4763318 -5.2200003 1.5621434
0.52498096 -5.2200003 1.5621438
0.57363015 -5.2200007 1.5621434
0.62395674 -5.2200003 1.5621434
0.67428333 -5.2199998 1.5621433
0.72460979 -5.2200007 1.5621434
0.77493662 -5.2199998 1.5621434
0.82526302 -5.2200003 1.5621438
0.87558973 -5.2200003 1.5621431
0.92591643 -5.2200003 1.5621436
0.97624302 -5.2200007 1.5621425
1.024274 -5.2199998 1.5621212
1.073541 -5.2200007 1.5621285
1.1245867 -5.2200003 1.5621005
1.1705369 -5.2199998 1.5609465
-1.1768074 -5.1725707 1.5611969
-1.124791 -5.1700006 1.562786
-1.0815328 -5.1709099 1.562786
-1.0109582 -5.1692309 1.562786
-0.97461486 -5.1700001 1.562786
-0.92399335 -5.1700001 1.562786
-0.87505966 -5.1700015 1.562786
-0.82612592 -5.170001 1.562786
-0.77550453 -5.1700001 1.562786
-0.72488326 -5.1700001 1.562786
-0.67426199 -5.1700001 1.562786
-0.62364095 -5.1700001 1.562786
-0.57470697 -5.1700015 1.562786
-0.52577305 -5.170001 1.562786
-0.47515184 -5.1700001 1.562786
-0.42453066 -5.1700001 1.562786
-0.37390938 -5.1700001 1.562786
-0.32497555 -5.1700015 1.562786
-0.27604169 -5.1700001 1.562786
-0.22391915 -5.170001 1.562786
-0.17492744 -5.1699996 1.562785
-0.12445133 -5.1699991 1.5627851
-0.074694857 -5.1699991 1.562785
-0.025187245 -5.1699996 1.562785
0.024113497 -5.1699991 1.5627851
0.074071854 -5.1699996 1.5627849
0.12464581 -5.1700001 1.5627851
0.17472692 -5.1699991 1.562785
0.22167347 -5.1700001 1.562786
0.27502534 -5.1700001 1.562786
0.32535189 -5.170001 1.562786
0.37567854 -5.1700001 1.562786
0.42600515 -5.1700001 1.562786
0.47633192 -5.170001 1.562786
0.52498096 -5.1700015 1.562786
0.57363003 -5.1700001 1.562786
0.62395662 -5.170001 1.562786
0.67428327 -5.170001 1.562786
0.72460973 -5.170001 1.562786
0.77493656 -5.170001 1.562786
0.8252632 -5.1700001 1.562786
0.87558961 -5.170001 1.562786
0.92591655 -5.1700001 1.562786
0.97624296 -5.170001 1.562786
1.0173872 -5.1694746 1.562786
1.0777017 -5.1704011 1.562786
1.1241075 -5.1700015 1.562786
1.1767846 -5.1725717 1.5611969
-1.1739483 -5.1213336 1.5619617
-1.1247914 -5.1200004 1.5627859
-1.0869262 -5.120801 1.562786
-1.0163171 -5.1185718 1.562786
-0.9746148 -5.1200004 1.5627856
-0.92399335 -5.1200004 1.5627856
-0.87505966 -5.1200004 1.5627859
-0.82612586 -5.1200004 1.5627856
-0.77550453 -5.1200004 1.5627856
-0.7248832 -5.1199999 1.5627856
-0.67426217 -5.1200004 1.5627856
-0.62364084 -5.1200004 1.5627856
-0.57470697 -5.1199994 1.5627859
-0.52577317 -5.1200004 1.5627856
-0.4751519 -5.1200004 1.5627856
-0.42453057 -5.1200004 1.5627856
-0.37390941 -5.1200008 1.5627856
-0.32497552 -5.1199999 1.5627859
-0.27604166 -5.1200004 1.5627856
-0.2239192 -5.1200004 1.5627855
-0.17492743 -5.1200023 1.5627843
-0.12445135 -5.1200018 1.5627842
-0.074694864 -5.1200018 1.5627843
-0.025187237 -5.1200018 1.5627843
0.024113504 -5.1200018 1.5627842
0.074071862 -5.1200023 1.5627844
0.12464581 -5.1200018 1.5627842
0.17472689 -5.1200027 1.5627843
0.22167346 -5.1200004 1.5627851
0.27502534 -5.1200004 1.5627856
0.32535192 -5.1199999 1.5627856
0.3756786 -5.1200004 1.5627856
0.4260053 -5.1200004 1.5627856
0.47633174 -5.1200004 1.5627856
0.52498102 -5.1200004 1.5627859
0.57362992 -5.1200004 1.5627856
0.6239565 -5.1200004 1.5627856
0.67428344 -5.1200004 1.5627856
0.72460997 -5.1200004 1.5627856
0.7749365 -5.1200004 1.5627856
0.82526302 -5.1200004 1.5627856
0.87558949 -5.1200004 1.5627856
0.92591661 -5.1199999 1.5627856
0.97624308 -5.1200004 1.5627856
1.0226849 -5.1194739 1.562786
1.0824497 -5.1206903 1.562786
1.1241075 -5.1200004 1.5627859
1.1739222 -5.1213331 1.5619617
-1.1768073 -5.0725718 1.5611969
-1.1241037 -5.0703707 1.567589
-1.0893563 -5.0700006 1.5681915
-1.0159998 -5.0705271 1.567907
-0.97461486 -5.0699997 1.5681915
-0.92399353 -5.0700002 1.5634882
-0.87505972 -5.0700002 1.562786
-0.82612574 -5.0700002 1.562786
-0.77550465 -5.0700002 1.562786
-0.72488338 -5.0700002 1.562786
-0.67426211 -5.0700002 1.562786
-0.62364089 -5.0700002 1.562786
-0.57470703 -5.0700002 1.562786
-0.52577311 -5.0699997 1.5639579
-0.47515196 -5.0700002 1.5673995
-0.42453057 -5.0700002 1.5673729
-0.37390944 -5.0700002 1.5630355
-0.32497558 -5.0700002 1.562786
-0.27604163 -5.0700002 1.562786
-0.22391918 -5.0700002 1.562786
-0.1749274 -5.0699992 1.562785
-0.12445133 -5.0699992 1.5627851
-0.074694857 -5.0699992 1.562785
-0.025187243 -5.0699997 1.562785
0.024113497 -5.0699992 1.5627851
0.074071862 -5.0699992 1.5627849
0.12464581 -5.0699992 1.5627851
0.17472692 -5.0699997 1.562785
0.2216735 -5.0700002 1.562786
0.27502531 -5.0700002 1.562786
0.32535198 -5.0700002 1.562786
0.37498441 -5.0703449 1.5630441
0.4260051 -5.0700002 1.5673766
0.47633186 -5.0700002 1.5673991
0.5249809 -5.0699997 1.5640395
0.57362998 -5.0700002 1.562786
0.62395662 -5.0700002 1.562786
0.67428327 -5.0700002 1.562786
0.72460973 -5.0700006 1.562786
0.77493662 -5.0700002 1.562786
0.82526326 -5.0700002 1.562786
0.87558967 -5.0700002 1.562786
0.92591643 -5.0700002 1.562786
0.97624308 -5.0700002 1.562786
1.0233436 -5.0707698 1.562786
1.0860671 -5.0706677 1.562786
1.1241074 -5.0700002 1.562786
1.176785 -5.0725713 1.5611972
-1.1739484 -5.0213327 1.5619619
-1.1243572 -5.0211415 1.5747918
-1.0869265 -5.0184007 1.5825105
-1.0151118 -5.0200005 1.5818502
-0.9746148 -5.02 1.578411
-0.92399353 -5.02 1.5641913
-0.87505978 -5.0200005 1.5627859
-0.8261261 -5.0199995 1.5627856
-0.77550447 -5.019999 1.5627856
-0.72488338 -5.02 1.5627856
-0.67426217 -5.0199995 1.5631907
-0.62364084 -5.02 1.56749
-0.57470691 -5.02 1.5711341
-0.52577317 -5.0199995 1.5720588
-0.47515187 -5.02 1.5720588
-0.42453066 -5.019999 1.5720588
-0.37390941 -5.02 1.5720584
-0.32493439 -5.0195127 1.570464
-0.27650186 -5.0204544 1.5663352
-0.22391917 -5.02 1.5627855
-0.1749274 -5.0199995 1.5627843
-0.12445133 -5.02 1.5627842
-0.07469485 -5.0199995 1.5627843
-0.025187248 -5.02 1.5627843
0.024113493 -5.0199995 1.5627842
0.074071869 -5.02 1.5627844
0.12464575 -5.019999 1.5627842
0.17472695 -5.0200005 1.5627843
0.22167343 -5.02 1.5627851
0.27548286 -5.0204544 1.5663319
0.32535198 -5.0195456 1.5705619
0.3756786 -5.02 1.5720584
0.42600513 -5.02 1.5720588
0.47633192 -5.02 1.5720588
0.52498096 -5.02 1.5720587
0.57363003 -5.0199995 1.5711918
0.62395674 -5.02 1.5674901
0.6742835 -5.0199995 1.5631907
0.72460973 -5.02 1.5627856
0.77493668 -5.02 1.5627856
0.82526302 -5.0199995 1.5627856
0.87558967 -5.02 1.5627856
0.92591655 -5.0199995 1.5627856
0.97624302 -5.02 1.5627856
1.0215367 -5.0200005 1.562786
1.0869617 -5.02 1.5627859
1.1241076 -5.0200005 1.5627859
1.1739218 -5.0213337 1.5619617
-1.1768075 -4.9725723 1.561197
-1.1249446 -4.9700007 1.5759892
-1.0898681 -4.9733334 1.5869308
-1.0151118 -4.98 1.5859956
-0.97380024 -4.970345 1.5806557
-0.92399347 -4.9700007 1.5641917
-0.87505966 -4.9700007 1.562786
-0.82612568 -4.9700007 1.562786
-0.77550447 -4.9700003 1.562786
-0.72488338 -4.9700007 1.562786
-0.67426205 -4.9700007 1.5701718
-0.62364084 -4.9700007 1.5720583
-0.57470697 -4.9700007 1.5720583
-0.52577311 -4.9700003 1.5720583
-0.47515187 -4.9700003 1.5720583
-0.42453063 -4.9700007 1.5720583
-0.37390944 -4.9700003 1.5720583
-0.32497555 -4.9700007 1.5720583
-0.27604169 -4.9700007 1.5720583
-0.22404407 -4.9700007 1.5677139
-0.1749274 -4.9700012 1.562785
-0.12445134 -4.9700003 1.5627851
-0.074694857 -4.9700012 1.562785
-0.025187252 -4.9700012 1.562785
0.024113497 -4.9700007 1.5627851
0.074071854 -4.9700003 1.5627849
0.12464581 -4.9700007 1.5627851
0.17472692 -4.9700012 1.562785
0.22139531 -4.9697151 1.5670099
0.27502534 -4.9700003 1.5720583
0.32535201 -4.9700007 1.5720583
0.37567854 -4.9700017 1.5720583
0.42600521 -4.9700007 1.5720583
0.4763318 -4.9700007 1.5720583
0.5249809 -4.9700003 1.5720583
0.57363003 -4.9700012 1.5720583
0.6239565 -4.9700003 1.5720583
0.67428315 -4.9700007 1.5701743
0.72460997 -4.9700007 1.562786
0.77493656 -4.9700007 1.562786
0.82526302 -4.9700007 1.562786
0.87558973 -4.9700007 1.562786
0.92591655 -4.9700007 1.562786
0.97624302 -4.9700007 1.562786
1.0207347 -4.9695659 1.562786
1.0886393 -4.9699998 1.562786
1.1241075 -4.9700007 1.562786
1.1767845 -4.9725723 1.5611972
-1.1739482 -4.9213333 1.5619617
-1.1249447 -4.9200001 1.5759892
-1.0880356 -4.9182615 1.5861022
-1.01816 -4.9174199 1.5861437
-0.97461474 -4.9200001 1.5808339
-0.92399371 -4.9199996 1.5641912
-0.87505966 -4.9200001 1.5627859
-0.82612574 -4.9200001 1.5627856
-0.77550447 -4.9200001 1.5627856
-0.72488326 -4.9200001 1.5685412
-0.67426205 -4.9199996 1.5720588
-0.62364084 -4.9200001 1.5720588
-0.57470715 -4.9199991 1.5720587
-0.52577317 -4.9200001 1.5720588
-0.4751519 -4.9200001 1.5720588
-0.42453066 -4.9200001 1.5720588
-0.37390947 -4.9199996 1.5720588
-0.32497555 -4.9200001 1.5720587
-0.27604169 -4.9199996 1.5720588
-0.22542045 -4.9200001 1.5720581
-0.17460184 -4.9197569 1.5665787
-0.12445135 -4.9200001 1.5627842
-0.07469485 -4.9200006 1.5627843
-0.025187248 -4.920001 1.5627843
0.024113502 -4.9200006 1.5627842
0.074071854 -4.920001 1.5627844
0.12464578 -4.9200006 1.5627842
0.17452605 -4.9200006 1.5663221
0.22236466 -4.9199996 1.5720577
0.27502531 -4.9200001 1.5720588
0.32535189 -4.9199991 1.5720588
0.37567863 -4.9200001 1.5720588
0.42600504 -4.9200001 1.5720588
0.47633198 -4.9200001 1.5720588
0.52498102 -4.9200001 1.5720587
0.57362974 -4.9200001 1.5720588
0.62395662 -4.9200001 1.5720588
0.67428344 -4.9200001 1.5720588
0.72415227 -4.920454 1.5686722
0.77493662 -4.9199996 1.5627856
0.82526314 -4.9200001 1.5627856
0.87558967 -4.9200001 1.5627856
0.92591661 -4.9200001 1.5627856
0.97624302 -4.9199996 1.5627856
1.0233005 -4.9189749 1.562786
1.0844454 -4.9150009 1.562786
1.1241074 -4.9199991 1.5627859
1.1739217 -4.9213333 1.5619619
-1.1768074 -4.8725715 1.561197
-1.1233633 -4.8699999 1.5727654
-1.0758573 -4.8700004 1.5735971
-1.025236 -4.8699999 1.5735971
-0.97461474 -4.8700004 1.5735971
-0.92399335 -4.8700004 1.5641917
-0.8750596 -4.8699999 1.562786
-0.8261258 -4.8700004 1.562786
-0.77550447 -4.8700004 1.5649129
-0.72488338 -4.8700004 1.5720577
-0.67426211 -4.8699999 1.5720583
-0.62364089 -4.8700004 1.5720583
-0.57470703 -4.8699999 1.5720583
-0.52577311 -4.8699999 1.5720583
-0.4751519 -4.8700004 1.5720583
-0.42453071 -4.8700004 1.5720583
-0.37390935 -4.8700004 1.5720583
-0.32497552 -4.8699994 1.5720583
-0.27604166 -4.8700004 1.5720583
-0.22542042 -4.8699999 1.5720583
-0.17456797 -4.8700004 1.5713885
-0.12445134 -4.8700008 1.563118
-0.074694857 -4.8700013 1.562785
-0.025187245 -4.8700013 1.562785
0.024113497 -4.8700013 1.5627851
0.074071862 -4.8700004 1.5627849
0.12418296 -4.8701897 1.5629569
0.17436536 -4.8700004 1.5713886
0.22236475 -4.8699999 1.5720586
0.27502531 -4.8700004 1.5720583
0.32535192 -4.8699999 1.5720583
0.37567857 -4.8700004 1.5720583
0.42600521 -4.8700004 1.5720583
0.4763318 -4.8699999 1.5720583
0.5249809 -4.8699994 1.5720583
0.57362998 -4.8700004 1.5720583
0.62395662 -4.8700004 1.5720583
0.67428333 -4.8699999 1.5720583
0.72460991 -4.8699999 1.5720577
0.7749365 -4.8699999 1.5649127
0.82526314 -4.8699999 1.562786
0.87558961 -4.8700004 1.562786
0.92591661 -4.8700004 1.562786
0.9762429 -4.8700004 1.562786
1.024892 -4.8699999 1.562786
1.0735413 -4.8700004 1.562786
1.1241074 -4.8699999 1.562786
1.1767848 -4.8725715 1.5611972
-1.1751993 -4.8300004 1.5616273
-1.124791 -4.8299994 1.562786
-1.0760982 -4.8300004 1.562786
-1.025236 -4.8299999 1.562786
-0.97461474 -4.8300014 1.562786
-0.92399353 -4.8299999 1.562786
-0.87505972 -4.8299994 1.562786
-0.82612574 -4.8300004 1.562786
-0.77538806 -4.8303442 1.5675669
-0.72488338 -4.8300009 1.5720583
-0.67426211 -4.8299999 1.5720583
-0.62364084 -4.8300009 1.5720583
-0.57470697 -4.8299994 1.5720583
-0.52577311 -4.8300004 1.5720583
-0.47515193 -4.8300004 1.5720583
-0.42453066 -4.8300004 1.5720583
-0.37390938 -4.8300014 1.5720583
-0.32497558 -4.8300004 1.5720583
-0.27604166 -4.8300004 1.5720583
-0.22542045 -4.8300004 1.5720583
-0.17456797 -4.8300014 1.5720589
-0.12420225 -4.8301892 1.5653844
-0.07469485 -4.8300014 1.562785
-0.025187245 -4.8300014 1.562785
0.024113497 -4.8300018 1.5627851
0.074071869 -4.8300018 1.5627849
0.12439583 -4.8300014 1.5652076
0.17436536 -4.8300014 1.5720589
0.22236475 -4.8300014 1.5720586
0.27502531 -4.8299999 1.5720583
0.32535186 -4.8300004 1.5720583
0.3756786 -4.8299999 1.5720583
0.42600518 -4.8300009 1.5720583
0.47633186 -4.8300004 1.5720583
0.52498084 -4.8300009 1.5720583
0.57363003 -4.8300004 1.5720583
0.62395656 -4.8299999 1.5720583
0.67428315 -4.8300009 1.5720583
0.72460973 -4.8300004 1.5720583
0.77493674 -4.8300004 1.5677165
0.82526302 -4.8300009 1.562786
0.87558955 -4.8300009 1.562786
0.92591649 -4.8300009 1.562786
0.97624308 -4.8299999 1.562786
1.024892 -4.8300004 1.562786
1.0735414 -4.8299999 1.562786
1.1241072 -4.8300004 1.562786
1.1751745 -4.8300004 1.5616275
-1.1751994 -4.7800002 1.5616269
-1.1247911 -4.7799997 1.5627859
-1.0760986 -4.7800002 1.5627859
-1.0252359 -4.7799997 1.5627856
-0.9746148 -4.7799997 1.5627856
-0.92399341 -4.7799997 1.5627856
-0.87505984 -4.7799997 1.5627859
-0.82612568 -4.7799997 1.5627856
-0.77941221 -4.7947373 1.5680579
-0.72488332 -4.8000002 1.5720578
-0.67426211 -4.8000002 1.5720578
-0.62364089 -4.8000002 1.5720578
-0.57470697 -4.7999997 1.5720578
-0.52577317 -4.8000002 1.5720578
-0.47515187 -4.8000002 1.5720578
-0.42453066 -4.8000002 1.5720578
-0.37390938 -4.8000002 1.5720578
-0.32497555 -4.7999997 1.5720578
-0.28447855 -4.7999997 1.5720578
-0.21867093 -4.7999997 1.5720578
-0.17456795 -4.8000016 1.5720583
-0.12432781 -4.8000011 1.5668585
-0.074694864 -4.8000016 1.562786
-0.033815764 -4.8000002 1.562786
0.032094087 -4.8000002 1.562786
0.074071869 -4.8000016 1.562786
0.12267923 -4.8000011 1.5661528
0.1774397 -4.8000011 1.5720581
0.21596874 -4.7999997 1.5720578
0.28509066 -4.7999997 1.5720578
0.31696415 -4.7999997 1.5720578
0.37735611 -4.7999997 1.5720577
0.42600524 -4.8000002 1.5720577
0.47633183 -4.8000002 1.5720578
0.5249809 -4.7999997 1.5720578
0.57363003 -4.8000002 1.5720578
0.62395662 -4.8000002 1.5720578
0.67428327 -4.8000002 1.5720578
0.72460991 -4.8000002 1.5720578
0.77829164 -4.7955561 1.5684317
0.82526314 -4.7800002 1.5627856
0.87558973 -4.7799993 1.5627856
0.92591655 -4.7800002 1.5627856
0.97624284 -4.7799997 1.5627856
1.024892 -4.7799997 1.5627859
1.0735412 -4.7799997 1.5627856
1.1241076 -4.7800002 1.5627859
1.1751744 -4.7799997 1.5616269
-1.1739486 -4.721334 1.5619617
-1.1247911 -4.7200003 1.5627859
-1.0760984 -4.7200003 1.5627859
-1.0252359 -4.7200003 1.5627856
-0.97461474 -4.7200003 1.5627856
-0.92399359 -4.7200003 1.5627856
-0.87505949 -4.7200003 1.5627859
-0.83737493 -4.7333341 1.562786
0.83644682 -4.7333341 1.562786
0.87612361 -4.7204547 1.5627857
0.92591661 -4.7199993 1.5627856
0.9762429 -4.7200003 1.5627856
1.0248919 -4.7200003 1.5627859
1.073541 -4.7200003 1.5627856
1.1241072 -4.7199998 1.5627859
1.1739216 -4.721334 1.5619617
-1.1768074 -4.6725721 1.5611969
-1.124791 -4.670001 1.562786
-1.0760982 -4.670001 1.562786
-1.0252361 -4.670001 1.562786
-0.97461474 -4.670001 1.562786
-0.92399347 -4.6700001 1.562786
-0.8860926 -4.6738462 1.562786
0.88677353 -4.6733336 1.562786
0.92591661 -4.670001 1.562786
0.97624308 -4.670001 1.562786
1.024892 -4.6700015 1.562786
1.0735414 -4.670001 1.562786
1.1241075 -4.6700015 1.562786
1.1767845 -4.6725717 1.5611969
-1.1739486 -4.6213331 1.5619617
-1.1247911 -4.6200004 1.5627859
-1.0760982 -4.6200004 1.5627859
-1.0252361 -4.6199999 1.5627856
-0.97461456 -4.6200004 1.5627856
-0.93099314 -4.6274076 1.562786
0.93178791 -4.6278572 1.562786
0.97624302 -4.6200004 1.5627856
1.024892 -4.6200004 1.5627859
1.0735413 -4.6199999 1.5627856
1.1241076 -4.6199999 1.5627859
1.1739218 -4.6213336 1.5619619
-1.1768074 -4.5725718 1.5611969
-1.1247909 -4.5700002 1.562786
-1.0760982 -4.5700002 1.562786
-1.0252361 -4.5700006 1.562786
-0.97998375 -4.5727277 1.562786
0.98001742 -4.5725007 1.562786
1.024892 -4.5700002 1.562786
1.0735414 -4.5700002 1.562786
1.1241074 -4.5700002 1.562786
1.1767846 -4.5725708 1.561197
-1.1739483 -4.5213332 1.5619619
-1.1247911 -4.5199995 1.5627859
-1.0760983 -4.5199995 1.5627859
-1.0252359 -4.52 1.5627856
-0.99197066 -4.5214295 1.562786
0.99183428 -4.5211768 1.562786
1.024892 -4.5200005 1.5627859
1.0735412 -4.52 1.5627856
1.1241076 -4.5200005 1.5627859
1.1739218 -4.5213337 1.5619617
-1.1768074 -4.4725718 1.5611969
-1.1247911 -4.4700007 1.562786
-1.0760983 -4.4700007 1.562786
-1.025236 -4.4700003 1.562786
-0.99317592 -4.4700003 1.562786
0.99301863 -4.4700003 1.562786
1.024892 -4.4700003 1.562786
1.0735414 -4.4700003 1.562786
1.1241074 -4.4700007 1.562786
1.1767846 -4.4725714 1.5611969
-1.1751994 -4.4299998 1.5616273
-1.124791 -4.4300003 1.562786
-1.0760983 -4.4300003 1.562786
-1.025236 -4.4300003 1.562786
-0.99317592 -4.4300003 1.562786
0.99301863 -4.4300003 1.562786
1.024892 -4.4300003 1.562786
1.0735413 -4.4300003 1.562786
1.1241074 -4.4300003 1.562786
1.1751742 -4.4300003 1.5616274
-1.1751989 -4.3799996 1.5616268
-1.1247914 -4.3800001 1.5627859
-1.0760984 -4.3800001 1.5627859
-1.0252359 -4.3799996 1.5627856
-0.99486327 -4.3800001 1.562786
0.99469608 -4.3800006 1.562786
1.0248917 -4.3800001 1.5627859
1.073541 -4.3800001 1.5627856
1.1241074 -4.3799996 1.5627859
1.1751744 -4.3799992 1.5616269
-1.175199 -4.3300004 1.5616273
-1.124791 -4.3299994 1.562786
-1.0760983 -4.3299994 1.562786
-1.025236 -4.3300004 1.562786
-0.99486333 -4.3299999 1.562786
0.99469614 -4.3299999 1.562786
1.0248921 -4.3299994 1.562786
1.0735414 -4.3299999 1.562786
1.1241074 -4.3299994 1.562786
1.1751745 -4.3300004 1.5616274
-1.1751994 -4.2799997 1.561627
-1.1247911 -4.2799997 1.5627859
-1.0760983 -4.2800002 1.5627859
-1.0252359 -4.2799997 1.5627856
-0.99486327 -4.2800002 1.562786
0.99469596 -4.2799997 1.562786
1.0248921 -4.2799997 1.5627859
1.0735412 -4.2800002 1.5627856
1.1241075 -4.2800002 1.5627859
1.1751744 -4.2799997 1.5616268
-1.1739482 -4.2213335 1.5619617
-1.1247915 -4.2200003 1.5627859
-1.0760983 -4.2200003 1.5627859
-1.0252362 -4.2200003 1.5627856
-0.99486327 -4.2200003 1.562786
0.99469614 -4.2200007 1.562786
1.0248922 -4.2199998 1.5627859
1.0735412 -4.2200003 1.5627856
1.1241077 -4.2199998 1.5627859
1.1739218 -4.221334 1.5619617
-1.1768073 -4.1725717 1.561197
-1.1247911 -4.170001 1.562786
-1.0803058 -4.1727276 1.562786
-1.0252359 -4.1800003 1.562786
-0.99486327 -4.1800003 1.5627857
0.99469614 -4.1800003 1.5627859
1.0248921 -4.1800003 1.562786
1.0776258 -4.1730437 1.562786
1.1241075 -4.170001 1.562786
1.1767844 -4.1725721 1.5611969
-1.1739486 -4.1213331 1.5619617
-1.1247911 -4.1200004 1.5627859
-1.0876689 -4.1200004 1.562786
1.0852841 -4.1200004 1.562786
1.1241075 -4.1200004 1.5627859
1.1739221 -4.1213331 1.5619617
-1.1768074 -4.0725718 1.5611969
-1.124791 -4.0700006 1.562786
-1.0876689 -4.0800004 1.562786
1.085284 -4.0800004 1.562786
1.1241072 -4.0700006 1.562786
1.1767843 -4.0725722 1.5611969
-1.1739485 -4.0213337 1.5619617
-1.1262189 -4.0184622 1.562786
-1.0889812 -4.0022225 1.562786
1.0865889 -4.0022225 1.562786
1.1256745 -4.0184622 1.562786
1.1739218 -4.0213337 1.5619619
-1.1768075 -3.9725716 1.5611969
-1.1247911 -3.9700005 1.562786
-1.0876689 -3.97 1.562786
1.0852841 -3.97 1.562786
1.1241074 -3.9700005 1.562786
1.1767846 -3.9725721 1.5611972
-1.1739484 -3.9213331 1.5619617
-1.1262192 -3.9215393 1.562786
-1.0889814 -3.937778 1.562786
1.0865889 -3.937778 1.562786
1.1256744 -3.9215386 1.562786
1.1739218 -3.9213331 1.5619617
-1.1768075 -3.8725717 1.5611969
-1.124791 -3.8699996 1.562786
-1.0876689 -3.8600004 1.562786
1.085284 -3.8600004 1.562786
1.1241074 -3.8700001 1.562786
1.1767846 -3.8725712 1.5611972
-1.1751992 -3.8299999 1.5616273
-1.124791 -3.8300004 1.562786
-1.0876689 -3.8299999 1.562786
1.0852842 -3.8299999 1.562786
1.1241072 -3.8300002 1.562786
1.1751742 -3.8299997 1.5616274
-1.1751993 -3.78 1.5616268
-1.1262192 -3.7815387 1.562786
-1.0889813 -3.7977779 1.562786
1.0865889 -3.7977779 1.562786
1.1256742 -3.7815387 1.562786
1.1751744 -3.78 1.5616269
-1.1739485 -3.721333 1.5619617
-1.1247915 -3.7199998 1.5627859
-1.0876689 -3.7100008 1.562786
1.0852841 -3.7100008 1.562786
1.1241076 -3.7199998 1.5627859
1.1739217 -3.7213335 1.5619617
-1.1768073 -3.6725726 1.5611969
-1.124791 -3.6700008 1.562786
-1.0876688 -3.6700001 1.562786
1.0852842 -3.6700003 1.562786
1.1241075 -3.6700008 1.562786
1.1767846 -3.6725726 1.5611972
-1.1751993 -3.6300004 1.5616273
-1.1270185 -3.6312003 1.562786
-1.0977932 -3.6400003 1.5627859
1.0953493 -3.6400003 1.5627859
1.1265519 -3.6312003 1.562786
1.1751744 -3.6300006 1.5616273
-1.1751993 -3.5800006 1.5616268
-1.1247911 -3.5800006 1.5627859
-1.0805175 -3.5666671 1.5627859
-1.0319855 -3.5600004 1.562786
1.0299248 -3.5600004 1.562786
1.0778114 -3.5663643 1.562786
1.1241074 -3.5800004 1.5627859
1.1751744 -3.5799999 1.5616268
-1.1739483 -3.5213327 1.5619617
-1.1247913 -3.5199995 1.5627859
-1.0760984 -3.52 1.5627859
-1.0296714 -3.5159998 1.562786
-0.99655068 -3.5000002 1.5627859
0.99637365 -3.5000002 1.5627857
1.0284443 -3.5164702 1.562786
1.0735414 -3.5199995 1.5627856
1.1241074 -3.52 1.5627859
1.1739218 -3.5213327 1.5619619
-1.1768073 -3.4725716 1.561197
-1.1247911 -3.4700005 1.562786
-1.0760982 -3.4700005 1.562786
-1.025236 -3.4700007 1.562786
-0.99655068 -3.4700003 1.5627859
0.99637365 -3.47 1.562786
1.024892 -3.47 1.562786
1.0735415 -3.4700005 1.562786
1.1241074 -3.4700005 1.562786
1.1767848 -3.4725716 1.5611972
-1.1739485 -3.4213336 1.5619617
-1.1247911 -3.4200001 1.5627859
-1.0760984 -3.4200003 1.5627859
-1.0284283 -3.423784 1.562786
-0.99655068 -3.4400003 1.5627859
0.99637365 -3.4400003 1.5627857
1.0271287 -3.4233339 1.562786
1.0735412 -3.4200006 1.5627856
1.1241072 -3.4200003 1.5627859
1.1739221 -3.4213336 1.5619617
-1.1768075 -3.3725715 1.561197
-1.124791 -3.3700001 1.562786
-1.0760983 -3.3700001 1.562786
-1.0280915 -3.3684616 1.562786
-0.99655068 -3.3600001 1.5627859
0.99637365 -3.3599999 1.5627857
1.0271063 -3.3688002 1.562786
1.0735414 -3.3699999 1.562786
1.1241071 -3.3700001 1.562786
1.1767844 -3.3725715 1.561197
-1.1751993 -3.3299999 1.5616274
-1.124791 -3.3299999 1.562786
-1.0760983 -3.3299999 1.562786
-1.0252361 -3.3300002 1.562786
-0.99655068 -3.3299999 1.5627859
0.99637365 -3.3299999 1.562786
1.024892 -3.3300002 1.562786
1.0735413 -3.3299997 1.562786
1.1241074 -3.3299999 1.562786
1.1751746 -3.3300002 1.5616274
-1.1751993 -3.28 1.561627
-1.1247914 -3.2800007 1.5627859
-1.0760984 -3.2800007 1.5627859
-1.0275725 -3.2830775 1.562786
-0.99711317 -3.2933338 1.5627857
0.99704468 -3.2920003 1.5627859
1.0269321 -3.2827034 1.562786
1.073541 -3.2800009 1.5627856
1.1241076 -3.2800009 1.5627859
1.1751745 -3.2800004 1.561627
-1.1739483 -3.221333 1.5619617
-1.1247911 -3.2199998 1.5627859
-1.0760981 -3.2199998 1.5627859
-1.0275724 -3.2169228 1.562786
-0.99655068 -3.2000003 1.5627859
0.99721241 -3.2050004 1.5627859
1.0269322 -3.2172971 1.562786
1.0735408 -3.2199996 1.5627856
1.1241076 -3.2199998 1.5627859
1.1739218 -3.221333 1.5619617
-1.1768073 -3.1725724 1.561197
-1.124791 -3.1700006 1.562786
-1.0760983 -3.1700006 1.562786
-1.0252359 -3.1700008 1.562786
-0.99655068 -3.1700001 1.5627859
0.99637365 -3.1700003 1.562786
1.024892 -3.1700006 1.562786
1.0735414 -3.1700008 1.562786
1.1241072 -3.1700006 1.562786
1.1767848 -3.1725721 1.561197
-1.1739483 -3.1213331 1.5619617
-1.1247913 -3.1200001 1.5627859
-1.0760983 -3.1199999 1.5627859
-1.0252361 -3.1199999 1.5627856
-0.99655062 -3.1200001 1.562786
0.99637371 -3.1200001 1.562786
1.024892 -3.1199999 1.5627859
1.0735412 -3.1199999 1.5627856
1.1241074 -3.1199999 1.5627859
1.1739216 -3.1213336 1.5619617
-1.1768073 -3.0725715 1.5611969
-1.1247911 -3.0700004 1.562786
-1.0760982 -3.0700004 1.562786
-1.0252361 -3.0700002 1.562786
-0.99711317 -3.0666668 1.5627857
0.99704468 -3.0680003 1.5627859
1.0248921 -3.0700002 1.562786
1.0735413 -3.0700002 1.562786
1.1241075 -3.0700009 1.562786
1.1767846 -3.0725718 1.5611972
-1.1749234 -3.0213335 1.5602393
-1.1247911 -3.02 1.5607986
-1.0758574 -3.0199995 1.5607985
-1.0257732 -3.0204542 1.5608214
-0.99655068 -3.0400002 1.5617949
0.99721241 -3.0350001 1.5615458
1.024892 -3.02 1.5607984
1.0728388 -3.0204649 1.5608219
1.1241729 -3.0195451 1.5607761
1.1748167 -3.0213332 1.5602397
-1.1753556 -2.9716129 1.5575386
-1.1239786 -2.9703703 1.5583261
-1.0758572 -2.9700003 1.5583078
-1.0335042 -2.9709997 1.5583572
1.0309312 -2.9719996 1.5584071
1.0738884 -2.9696553 1.5582906
1.1238678 -2.9700005 1.5583076
1.1759107 -2.9720004 1.5575302
-1.1727928 -2.9303453 1.5560052
-1.1240122 -2.9300001 1.5563146
-1.0758573 -2.9300003 1.5563146
-1.0421098 -2.9350004 1.5565639
1.0411084 -2.9366672 1.5566468
1.0735413 -2.9300001 1.5563146
1.123058 -2.9303453 1.5563318
1.1739157 -2.9300003 1.5559765
-1.1723582 -2.8800001 1.5536315
-1.1253819 -2.8795002 1.5537987
-1.0820444 -2.8853338 1.5540892
1.0815697 -2.8850005 1.5540725
1.1233087 -2.8800004 1.5538237
1.1725706 -2.8800001 1.5536318
-1.1719079 -2.8300002 1.5513325
-1.124791 -2.8300002 1.5513325
-1.0969496 -2.835 1.5515816
1.0945106 -2.835 1.5515816
1.1249461 -2.8299999 1.5513325
1.1718717 -2.8299997 1.5513324
-0.94828969 -2.28 1.5970901
0.94828969 -2.28 1.5970907
-0.94727904 -2.23 1.59709
0.94727904 -2.23 1.5970907
-0.9442836 -2.1799998 1.5954487
0.94428384 -2.1799998 1.5954494
-0.9397561 -2.1299999 1.59709
0.93975663 -2.1299999 1.5970907
-0.93516505 -2.0759997 1.5957769
0.93516505 -2.0759997 1.5957778
-0.93179011 -2.03 1.5954487
0.93179059 -2.03 1.5954496
-0.9265095 -1.9799999 1.5951204
0.92650968 -1.9799999 1.5951211
-0.91898012 -1.9300001 1.5954487
0.91898084 -1.9300001 1.5954496
-0.91227984 -1.885 1.5954487
0.91228008 -1.885 1.5954496
-0.90359241 -1.8333334 1.5959959
-0.89981604 -1.8200001 1.5938075
0.89981604 -1.8200001 1.5938084
0.90359306 -1.8333334 1.5959965
-0.89237142 -1.7800001 1.5959959
0.89237112 -1.7800001 1.5959965
-0.88191211 -1.73 1.59709
0.88191104 -1.73 1.5970907
-0.87300611 -1.6900001 1.59709
0.87300563 -1.6900001 1.5970907
-0.85571909 -1.62 1.59709
0.85571909 -1.62 1.5970907
-1.0049875 -5.2600002 1.6118532
-0.98755127 -5.271667 1.607452
0.98854512 -5.2711115 1.6125711
1.0030839 -5.2600002 1.6121778
-1.0173657 -5.2209096 1.6186725
-0.99823803 -5.2400002 1.6097919
1.0178021 -5.2236371 1.6210449
-1.0369401 -5.172801 1.6226516
1.036676 -5.175714 1.6210918
-1.0520636 -5.1224999 1.6203668
-1.0408838 -5.1252632 1.6253977
1.0454453 -5.1266661 1.6214954
-1.057017 -5.0769997 1.6177781
-1.0411893 -5.0690923 1.6278603
1.0459329 -5.0828576 1.6233577
1.0533361 -5.0737505 1.6204019
-1.0588517 -5.0266666 1.6203377
-1.0404226 -5.0200005 1.6291716
1.0450228 -5.0200005 1.6346921
1.0546411 -5.0266666 1.621632
-1.066942 -4.9695239 1.6253451
-1.0305703 -4.9678264 1.6326478
-0.99823803 -4.9600005 1.6017579
1.0440162 -4.9720001 1.6470648
1.0546235 -4.98 1.6297759
-1.0587038 -4.9244452 1.6296649
-1.0403006 -4.9262509 1.6395053
1.0467002 -4.9200006 1.6460739
1.0554899 -4.9282351 1.6300675
-1.0570111 -4.9000001 1.6200675
1.0480961 -4.9000001 1.6167858
1.0529704 -4.9000001 1.624445
-0.95728558 -4.0599999 1.6397624
0.95728511 -4.0599999 1.6397632
-0.95744431 -4.0299997 1.6397624
0.95744407 -4.0300002 1.6397632
-0.95744449 -3.9799998 1.6397625
-0.94673204 -3.98 1.6496098
0.94673204 -3.98 1.6496108
0.95744437 -3.9799995 1.6397632
-0.95744431 -3.9300003 1.6397624
0.95744407 -3.9300003 1.6397632
-0.95744449 -3.8800001 1.6397625
0.95744401 -3.8799999 1.6397632
-0.95644391 -3.832 1.6417319
0.95644391 -3.832 1.6417328
-0.95744419 -3.78 1.6397625
0.95744401 -3.7799997 1.6397632
-0.95744455 -3.73 1.6397624
0.95744407 -3.73 1.6397631
-0.95744437 -3.6800001 1.6397625
-0.94861305 -3.7 1.6496098
0.94861305 -3.7 1.6496108
0.95744401 -3.6800001 1.6397632
-0.95744431 -3.6300001 1.6397624
0.95744407 -3.6300001 1.6397632
-0.95744449 -3.5799999 1.6397625
0.95744401 -3.5799999 1.6397632
-0.95744455 -3.5300002 1.6397624
-0.94780314 -3.54 1.6496098
0.94780314 -3.54 1.6496108
0.95744407 -3.5300002 1.6397631
-0.95744449 -3.4800003 1.6397625
0.95744401 -3.4799995 1.6397632
-0.95744455 -3.4300001 1.6397624
0.95744407 -3.4300003 1.6397632
-0.95744449 -3.3800001 1.6397625
-0.94479811 -3.4000001 1.6496098
0.94479907 -3.4000001 1.6496108
0.95744401 -3.3800001 1.6397632
-0.95744455 -3.3299999 1.6397624
0.95744407 -3.3299999 1.6397631
-0.95744449 -3.28 1.6397625
0.95744437 -3.28 1.6397632
-0.95744455 -3.23 1.6397624
0.95744431 -3.23 1.6397632
-0.95698333 -3.1900001 1.6397624
0.95698309 -3.1900001 1.6397632
-0.92200106 -2.9733334 1.6474214
0.92108029 -2.9733334 1.6474223
-0.95133448 -2.9200001 1.6441389
-0.94328964 -2.9319999 1.6397625
0.94328946 -2.9319999 1.6397632
